ncols         185
nrows         58
xllcorner     148575
yllcorner     563175
cellsize      50
NODATA_value  -9999
135.5831 135.8837 136.3725 136.9462 137.3775 137.5131 137.6263 138.1281 138.4463 138.3225 138.5363 139.0819 139.3906 139.4987 139.5638 139.5719 139.6769 140.0912 140.7906 141.4162 141.7825 142.1244 142.5531 142.9688 143.1919 143.2181 143.1881 144.1994 145.5469 144.8569 143.4656 142.7806 142.6356 143.1781 143.6319 143.6113 143.3712 142.8687 142.3006 142.0531 142.0488 142.1687 142.4738 142.9025 143.3544 143.8112 143.9312 143.5388 143.3069 143.5612 143.805 144.0219 144.5956 145.1263 145.2975 145.7787 146.4487 146.8581 147.4981 147.7775 147.0381 146.2612 146.2731 146.8906 147.3138 147.1325 146.8131 146.6013 146.47 146.5894 146.9413 147.2713 147.46 147.5338 147.585 147.7637 148.0106 148.0663 147.8712 147.6956 147.7469 148.0225 148.3981 148.6656 148.7919 149.0069 149.3969 149.6544 149.6694 149.7388 149.9131 150.0981 150.3231 150.6263 150.965 151.2363 151.4644 151.7069 151.9675 152.3562 153.065 154.0781 155.0387 155.5331 155.4325 155.0112 154.6981 154.6175 154.6881 154.8106 154.9531 155.1556 155.3744 155.5788 155.7556 155.8613 155.8994 155.9462 156.06 156.1094 155.96 155.7919 155.7394 155.8769 156.0625 155.8819 155.5088 155.3963 155.545 155.68 155.7969 155.7487 155.7137 156.5306 157.8138 158.2538 157.4538 156.1369 155.14 154.8125 155.07 155.3381 155.0244 154.5144 154.4919 154.6494 154.9306 155.8975 156.7819 156.7125 156.8544 158.4194 161.1531 163.8375 165.4819 166.05 165.9163 165.7025 165.1906 164.2831 164.3356 165.3419 165.3587 163.5206 160.8131 158.7487 158.1375 158.7875 160.2619 161.7569 162.5625 163.02 163.4844 163.6719 163.4594 162.5587 161.2988 161.0213 161.4125 161.06 159.9888 159.4869 159.8419 160.2031 160.4837
137.0125 137.3769 138.2744 139.2125 139.5363 139.1106 138.7681 139.2238 139.6906 139.5694 139.4675 139.5538 139.5306 139.5506 139.6844 139.765 139.8219 140.1187 140.9094 141.7825 142.2025 142.4588 142.6888 142.7594 142.7581 142.7762 142.8519 143.9656 145.3 144.5262 143.1775 142.7875 142.9769 143.5325 143.8769 143.8887 143.655 143.1531 142.6694 142.4431 142.2975 142.3531 142.9056 143.6331 144.0531 144.195 144.1644 143.8562 143.5575 143.6875 143.9894 144.3206 144.9312 145.5112 145.7538 146.2513 146.9962 147.6069 148.5019 148.8044 147.8294 146.95 147.1606 147.9444 148.285 147.9275 147.3569 147.0819 147.0713 147.1256 147.4056 147.7363 147.87 147.8687 147.8463 147.9425 148.0644 148.0825 147.9837 147.87 147.9538 148.2575 148.6312 148.9519 149.1613 149.3469 149.6494 149.9187 150.0112 150.1294 150.3456 150.5594 150.7425 150.9769 151.2863 151.5262 151.6831 151.8419 152.0725 152.6394 153.8244 155.4825 157.1144 158.0775 157.9337 157.0831 156.2794 155.775 155.5369 155.4575 155.5087 155.7169 155.9512 156.1669 156.375 156.5013 156.5375 156.5462 156.5644 156.5444 156.4444 156.3188 156.1875 156.1369 155.9794 155.5956 155.5056 155.6444 155.6381 155.6362 155.6288 155.325 154.92 155.2906 156.3144 156.6944 156.1281 155.39 154.7531 154.3656 154.5544 154.8412 154.6344 154.2775 154.4181 154.8281 155.26 156.3488 157.5506 157.8181 158.3763 160.5619 163.8994 167.0669 168.6387 168.6719 168.3219 167.8469 167.0175 166.3944 166.7088 166.9994 165.5475 162.6288 160.0331 158.7256 158.7056 159.7619 161.3037 162.6081 163.565 164.3463 164.5194 163.8419 162.7144 161.2937 160.0137 159.5506 159.7012 159.7012 159.3394 159.135 159.235 159.5388 160.0762
138.9688 139.1512 139.7731 140.6744 140.785 139.9725 139.4637 139.6687 140.1775 140.3125 140.0144 139.815 139.6812 139.7106 140.1444 140.5737 140.6163 140.7225 141.4075 142.1244 142.3188 142.3756 142.3575 142.2012 142.3175 142.6831 142.8938 143.8887 145.2487 144.8544 143.6044 143.05 143.2575 143.6044 143.9956 144.3763 144.1687 143.8212 143.5719 143.3387 143.1037 143.0137 143.4381 144.0762 144.4375 144.4794 144.3381 144.0587 143.8569 143.8638 143.9763 144.3394 144.8788 145.3887 145.8856 146.485 147.2981 148.2437 149.2075 149.4256 148.485 147.6931 148.0131 148.7275 148.8381 148.3775 147.7863 147.6194 147.9863 148.2137 148.3381 148.4956 148.5956 148.5644 148.2825 148.1231 148.1438 148.1694 148.1831 148.1481 148.2344 148.53 148.9012 149.2531 149.5375 149.7281 149.9181 150.1425 150.3412 150.54 150.7738 150.9962 151.1275 151.2937 151.6913 152.1319 152.3481 152.395 152.6169 153.5125 155.0719 156.9312 159.0044 160.45 160.1581 158.8913 157.8931 157.1306 156.505 156.1725 156.1775 156.4394 156.7481 157.01 157.1425 157.1594 157.1531 157.1075 156.9762 156.8188 156.7375 156.6787 156.5788 156.4369 156.0188 155.5175 155.565 155.8631 155.8856 155.7812 155.4888 154.8938 154.4144 154.4812 154.84 154.8925 154.7681 154.6044 154.2063 154.075 154.3525 154.4331 154.2312 154.1344 154.6044 155.4019 155.9675 156.9019 158.2744 159.2787 160.3587 162.5087 165.7975 168.7838 169.9062 169.6219 169.225 168.86 168.3281 167.9212 167.7425 167.0863 165.075 162.2719 160.1594 159.2456 159.625 161.1094 162.6225 163.615 164.2838 164.6087 164.205 163.1581 161.9169 160.44 159.0575 158.48 158.7294 159.1163 159.2119 159.1756 159.1125 159.3288 159.8513
140.12 140.2275 140.1881 140.5444 140.4425 139.8338 139.635 139.705 140.1087 140.5025 140.4456 140.4212 140.3262 140.3262 140.9144 141.4975 141.4506 141.3838 141.8919 142.3862 142.5262 142.6725 142.7994 142.8019 143.02 143.3269 143.27 144.025 145.485 145.3631 143.9362 143.2019 143.5919 143.9894 144.5444 145.0925 144.8681 144.6344 144.35 143.9881 143.8094 143.6356 143.6444 143.9 144.3094 144.5462 144.3638 144.1206 144.32 144.5006 144.2819 144.355 144.8 145.4069 146.3256 147.3031 148.2306 148.9206 149.25 149.2688 148.7144 148.3412 148.71 149.1537 149.1306 148.7306 148.2444 148.175 148.7044 149.1144 149.1888 149.1144 149.2481 149.3694 148.85 148.3581 148.2513 148.2619 148.3706 148.5025 148.7125 148.9962 149.355 149.7444 149.9656 150.0762 150.2625 150.5144 150.76 151.01 151.2431 151.39 151.425 151.5381 152.0213 152.7162 153.1925 153.3456 153.6819 154.8181 156.3737 157.9731 159.965 161.3981 160.9719 159.7244 158.8656 157.9481 157.0869 156.8062 156.9644 157.3031 157.6031 157.7719 157.7688 157.6812 157.5862 157.4062 157.0925 156.8069 156.7381 156.7444 156.6962 156.5631 156.1419 155.685 155.7394 156.0775 156.1931 155.9425 155.3944 154.8356 154.4987 154.4006 154.3219 154.0788 154.1431 154.2719 154.0544 154.1919 154.4212 154.3775 154.4725 154.7113 155.2719 156.0531 156.6619 157.6413 159.2881 161.1469 162.715 163.9269 165.8656 168.1475 169.0231 168.7806 168.4656 168.2737 168.0938 167.7925 167.3306 166.3375 164.3806 162.1069 160.4669 159.7031 160.1781 161.5988 162.9056 163.9012 164.3875 164.1512 163.5006 162.4944 161.26 159.8869 158.5862 158.0075 158.3569 158.9081 159.0331 159.0262 159.1856 159.5894 160.3438
140.6306 140.6994 140.3488 140.3188 140.1231 139.8138 139.875 139.9812 140.2625 140.7762 141.0969 141.2525 141.1681 141.1731 141.6525 142.205 142.3506 142.3394 142.6488 143.115 143.4413 143.7225 144.1463 144.3669 144.2519 143.9738 143.57 144.2781 145.46 144.5569 142.8156 142.7044 143.7937 144.8931 145.6738 145.6637 145.2312 145.165 144.9888 144.5181 144.1825 143.9375 143.6344 143.6575 144.2456 144.7881 144.6788 144.4181 144.7962 145.1869 144.9794 144.9538 145.4256 146.1931 147.275 148.4619 149.3731 149.4381 148.96 148.8044 148.8156 148.9331 149.2088 149.3169 149.2012 148.9475 148.645 148.4944 148.55 148.8069 149.27 149.5344 149.8125 150.015 149.4944 148.8769 148.5525 148.4181 148.5756 148.9156 149.3381 149.6113 149.8737 150.27 150.3938 150.4356 150.7731 151.1588 151.3919 151.555 151.6738 151.7006 151.6575 151.7538 152.265 153.0813 153.8338 154.3325 154.9244 156.0663 157.3581 158.5844 160.0788 161.0738 160.7619 159.9925 159.3387 158.3581 157.5894 157.5887 157.9225 158.2112 158.335 158.3138 158.1781 157.98 157.7513 157.4156 156.9569 156.6281 156.5975 156.6481 156.6163 156.465 156.1387 155.9062 156.0669 156.3887 156.5688 156.2594 155.5312 155.1219 155.0025 154.88 154.525 153.9544 154.0644 154.2981 154.2631 154.6381 154.7094 154.6144 155.0594 155.575 156.0556 156.6913 157.3381 158.45 160.4487 162.7725 164.52 165.2106 165.8756 167.1237 167.7919 167.6269 167.3062 167.1487 167.0481 166.7637 166.2956 165.235 163.2694 161.32 160.2 159.8475 160.3794 161.4337 162.3519 163.1975 163.6425 163.3669 162.7756 161.8763 160.6037 159.4294 158.565 158.1394 158.4787 158.8613 158.73 158.7787 159.25 159.9219 161.065
140.7594 140.7269 140.4825 140.3913 140.1506 140.0375 140.3819 140.6187 140.8556 141.5694 142.2087 142.3662 142.1194 142.0625 142.4594 142.9337 143.46 143.86 143.9769 144.1306 144.3075 144.4569 144.88 145.155 144.8212 144.2931 143.9794 144.7587 145.4088 143.85 142.3062 142.5556 143.535 144.785 145.6662 145.4106 144.8575 144.8631 145.0538 144.7394 144.2619 143.9494 143.5412 143.5894 144.2594 144.8875 145.0806 145.0344 145.325 145.8163 145.9975 146.2219 146.7919 147.5056 148.3387 149.3537 150.1656 150.13 149.6081 149.6081 149.8319 149.6125 149.305 149.2269 149.2244 149.1475 148.8319 148.2144 147.7363 147.9925 148.9275 149.7475 150.2413 150.4556 150.1331 149.6225 149.0856 148.7081 148.8412 149.2725 149.7663 150.085 150.2681 150.5981 150.8081 150.9119 151.2919 151.7225 151.92 151.9756 152.005 152.0188 152.0262 152.1938 152.7375 153.5856 154.46 155.2162 156.0238 157.1919 158.4606 159.4356 160.2644 160.7113 160.4444 159.9294 159.3369 158.5769 158.2038 158.3931 158.7344 158.9075 158.8206 158.6019 158.3562 158.0813 157.7413 157.3488 156.9444 156.6212 156.5025 156.6169 156.7437 156.5925 156.3119 156.2319 156.3819 156.5638 156.6569 156.3975 155.7563 155.4738 155.5038 155.2412 154.6288 154.2531 154.6531 154.7769 154.7556 155.3806 155.5938 155.46 155.8306 156.4731 156.9825 157.4538 158.1881 159.6425 161.8494 163.85 165.0256 165.7112 166.2756 166.7569 166.9062 166.5813 166.175 165.9981 165.8094 165.4113 164.8913 163.765 161.7525 160.0944 159.6837 160.1644 161.2056 162.1819 162.6937 163.0306 163.03 162.555 161.8406 160.9288 159.8569 159.0612 158.5863 158.3138 158.5606 158.6888 158.5213 158.8087 159.4206 160.1356 161.1844
140.5912 140.6062 140.555 140.3944 140.1163 140.4331 141.3706 142.03 142.6469 143.5887 144.1062 144.0575 143.7287 143.52 143.7863 144.2731 144.8337 145.2831 145.1763 144.7812 144.6337 144.6712 144.8519 145.0019 144.7863 144.4169 144.0862 144.7962 145.6444 144.6263 143.4612 143.3456 143.4925 143.8488 144.4269 144.4906 144.1081 144.2713 144.7469 144.54 144.015 143.7669 143.585 143.7906 144.4837 145.1575 145.5931 145.6819 145.7581 146.2906 146.815 147.0631 147.5419 148.2481 149.0681 150.0562 150.7369 150.8188 150.74 151.12 151.2756 150.3125 149.2456 149.1869 149.5525 149.4469 148.6619 147.5713 147.205 147.8506 148.86 149.6981 150.1244 150.3087 150.3338 150.1175 149.5694 149.0188 149.0325 149.4706 150.0112 150.4956 150.805 151.1081 151.3619 151.4144 151.5963 151.9812 152.1844 152.2031 152.3044 152.4944 152.7231 153.0825 153.6675 154.4344 155.2337 156.0256 156.8994 158.1719 159.725 160.8019 161.1844 161.0575 160.5794 159.9863 159.3756 158.9 158.75 158.8875 159.1306 159.2063 159.0206 158.6956 158.33 158.0056 157.6331 157.2419 157.0744 156.8712 156.5475 156.6631 156.9844 156.8306 156.4837 156.355 156.4244 156.4913 156.3806 156.155 155.8369 155.8175 155.9812 155.49 154.7363 154.7144 155.1481 155.2331 155.5013 156.4056 156.8887 156.7919 156.9719 157.4331 157.7919 158.1425 159.0681 161.01 163.2481 164.595 165.0506 165.5331 166.2594 166.525 166.0694 165.3594 164.9019 164.6462 164.2563 163.7325 163.1881 162.2025 160.6044 159.5456 159.8206 161.1325 162.7881 163.7125 163.7213 163.3731 162.7012 161.8275 160.9356 159.9406 159.0863 158.66 158.4531 158.3 158.3163 158.3844 158.7337 159.655 160.4331 160.9444 161.6413
141.2681 141.375 141.4069 141.1169 140.7663 141.1706 142.3725 143.8444 145.1637 145.9081 145.8525 145.5244 145.2663 144.9619 145.0325 145.5219 145.7344 145.6706 145.3306 144.6981 144.38 144.2981 144.2844 144.4019 144.39 144.0119 143.3606 144.2894 146.0019 145.6194 144.5612 144.3694 144.3419 144.1569 144.1631 143.965 143.6056 144.065 144.6569 144.3188 143.6856 143.56 143.7494 144.1744 144.905 145.705 146.3269 146.3562 146.09 146.5119 147.1694 147.2669 147.4994 148.1969 149.0644 150.0556 150.7175 150.8931 151.1944 151.775 151.7506 150.7581 150.0094 150.2631 150.4275 149.6087 148.4106 147.6638 147.82 148.6375 149.425 149.9175 149.9962 149.9756 150.1269 150.1362 149.7825 149.2781 149.1994 149.6331 150.2669 150.9263 151.3894 151.6269 151.7556 151.7675 151.8981 152.29 152.5112 152.5056 152.6938 153.08 153.5381 154.0894 154.6888 155.2888 155.9331 156.7287 157.6663 158.9144 160.535 161.8919 162.28 161.7481 160.9631 160.2531 159.6625 159.3375 159.235 159.2263 159.1694 158.9662 158.7587 158.5562 158.2238 157.9369 157.6225 157.1419 156.97 156.9175 156.6288 156.6619 156.8019 156.5125 156.2256 156.1875 156.3731 156.545 156.2981 155.9106 155.6237 155.7712 156.1975 155.8431 155.0769 154.8456 154.9362 155.2219 156.0119 157.2244 157.9531 157.8144 157.7431 157.9706 158.1794 158.6131 159.74 161.8813 164.0356 165.1156 165.4425 165.6312 166.0525 166.1644 165.3494 164.34 163.8069 163.4319 162.9312 162.4006 161.8969 161.2444 160.5356 160.3469 160.9337 162.3775 164.0225 164.5219 163.7363 162.5031 161.4381 160.8138 160.2325 159.2431 158.4713 158.225 158.1506 158.1825 158.2475 158.565 159.61 161.3394 162.7044 163.1087 163.1181
143.1212 142.9375 142.7256 142.3681 142.2563 142.4706 143.2038 145.0681 146.5444 146.5106 145.8944 145.4637 145.1725 144.8325 144.9012 145.1475 144.8519 144.4337 144.0856 143.5525 143.1819 142.995 143.0331 143.3887 143.7437 143.5806 143.0737 144.515 146.7594 146.3506 145.0269 144.8006 144.9312 144.8737 144.7231 144.1706 143.6919 144.2413 144.675 144.2238 143.7281 143.7381 144.0775 144.5406 145.1644 145.88 146.5044 146.6831 146.535 146.7869 147.2238 147.2875 147.3881 147.8313 148.4888 149.2994 149.9738 150.335 150.7556 151.1706 151.0856 150.8987 151.2737 151.6619 151.0744 149.725 148.8375 148.8306 149.2556 149.8694 150.4106 150.645 150.4688 150.1544 150.0188 149.9475 149.78 149.52 149.4987 149.9044 150.5731 151.2787 151.71 151.8256 151.86 151.9431 152.2025 152.645 152.9219 152.945 153.11 153.5619 154.175 154.84 155.4625 156.0388 156.655 157.4613 158.495 159.6994 161.1744 162.6344 163.1019 162.3862 161.3412 160.4231 159.7381 159.4381 159.3931 159.2931 158.9444 158.4563 158.2137 158.255 158.2781 158.2231 157.8887 157.2406 156.9206 156.8663 156.7206 156.9056 157.0887 156.6756 156.1888 155.97 156.06 156.4056 156.3856 155.8412 155.1494 155.1625 155.8837 155.7519 154.9487 154.6719 155.0444 155.8181 156.6656 157.7437 158.4025 158.0556 157.9831 158.5462 158.9312 159.2431 160.2406 162.1694 164.0444 165.2612 165.9263 166.0325 166.0481 165.8119 164.8975 164.0513 163.7419 163.4925 163.0063 162.3819 161.9225 161.585 161.365 161.6919 162.33 163.19 164.0406 163.8456 162.4081 160.745 159.7569 159.5181 159.5175 159.0356 158.3737 158.0188 157.8112 157.9669 158.495 159.3531 160.7044 162.53 164.3506 164.9 164.195
144.3931 143.5925 142.8706 142.6113 143.0594 143.4019 143.6394 144.9206 145.7787 145.1825 144.3744 143.9487 143.6637 143.4381 143.56 143.6156 143.1325 142.7056 142.5519 142.2131 141.9281 142.025 142.3512 142.8294 143.4144 143.5631 143.2975 145.07 147.6019 146.8587 144.9337 144.2269 144.1962 144.69 145.0019 144.425 144.0612 144.5775 144.6313 144.2612 144.2312 144.3881 144.6288 144.98 145.5444 146.0681 146.33 146.6356 146.9744 147.1144 147.0875 147.075 147.1644 147.39 147.8519 148.515 149.1731 149.5975 149.7819 149.7781 149.9131 150.5737 151.24 151.265 150.7256 150.0213 149.6913 149.8813 150.2719 150.6706 151.0006 151.1375 150.9438 150.5219 150.1481 149.9756 149.9544 149.9569 150.0663 150.44 151.0356 151.6038 151.8881 151.9362 151.9625 152.1056 152.4362 152.8988 153.2756 153.4388 153.6 154.01 154.6331 155.3206 156.0206 156.7619 157.5069 158.32 159.4556 160.8313 162.3375 163.6625 163.8344 162.8813 161.7019 160.5712 159.7156 159.3675 159.1888 158.8944 158.5006 158.0644 157.835 157.9831 158.3569 158.5019 157.9806 157.1975 156.9131 156.8556 156.7906 157.2456 157.7538 157.3387 156.3412 155.5737 155.2669 155.5506 155.8975 155.5688 154.8544 154.7556 155.3913 155.2713 154.6625 154.6888 155.5275 156.7675 157.4556 158.355 158.9075 158.4012 158.6987 159.9212 160.6212 160.6519 161.0769 162.3906 163.7688 164.9781 166.0594 166.3987 166.23 165.7388 165.06 164.8775 165.1306 165.2919 164.9831 164.1212 163.39 163.0437 162.7119 162.7744 163.2413 163.6444 163.5481 162.545 160.8419 159.42 158.8594 158.5688 158.6325 158.9519 158.8581 158.4494 157.9287 157.9012 158.7106 160.0188 161.5269 162.9831 164.3075 164.835 164.315
143.91 142.655 141.8581 141.875 142.345 142.6531 142.9331 143.5338 143.7356 143.2325 142.7481 142.5756 142.5006 142.6181 142.9062 142.8644 142.3756 142.0137 142.0131 141.9763 142.0075 142.4244 142.8475 143.2288 143.6981 143.6325 143.245 145.1212 147.6331 146.4369 144.1212 143.1687 143.0744 143.9625 144.4175 143.8938 143.7806 144.0506 143.7669 143.7012 144.4037 145.0587 145.2937 145.5656 146.0737 146.435 146.61 146.9931 147.5219 147.5606 147.14 146.9644 147.0494 147.1987 147.5056 147.9781 148.5462 148.9162 148.8531 148.59 148.8431 149.6537 150.0756 150.0244 150.0375 150.075 150.0813 150.235 150.5406 150.8262 151.0387 151.17 151.0712 150.7094 150.3494 150.2762 150.4356 150.6156 150.8194 151.1331 151.5237 151.8631 152.0412 152.0769 152.1381 152.3638 152.7188 153.1362 153.5619 153.9425 154.2838 154.6225 155.0356 155.6456 156.4388 157.325 158.2162 159.1481 160.4469 162.0344 163.455 164.2256 163.8412 162.7169 161.5862 160.5562 159.9025 159.5506 159.0531 158.5706 158.1775 157.8175 157.6463 157.7944 158.2088 158.2937 157.6387 156.8338 156.5356 156.5056 156.6187 157.0756 157.3719 156.97 156.0894 155.3144 154.8319 154.8694 155.2381 155.2113 154.975 155.0144 155.335 155.4025 155.5063 155.84 156.5331 157.6825 158.2888 158.9394 159.535 159.375 159.8369 161.1969 162.0506 162.1006 162.1775 162.8087 163.6638 164.7181 166.0294 166.7019 166.67 166.2644 165.8556 166.0775 166.745 167.3494 167.3963 166.5844 165.4538 164.7263 164.2056 163.7738 163.8788 164.1544 163.5762 162.0631 160.1037 158.6206 158.2181 157.9619 157.9631 158.575 159.0225 159.0312 158.59 158.3219 158.9256 160.2606 161.9656 163.4344 164.3231 164.675 164.5756
142.3225 141.195 140.8881 141.2181 141.4631 141.5844 141.8769 142.155 142.1581 141.8969 141.8225 142.0644 142.2869 142.6969 143.1325 142.965 142.5088 142.36 142.4194 142.405 142.4425 142.7806 143.1756 143.6219 144.0275 143.7794 143.4388 145.0112 146.7194 145.1625 142.9337 142.2706 142.38 142.9394 143.2244 143.16 143.2025 143.19 142.9181 143.1006 144.2863 145.5219 145.8506 145.9631 146.305 146.4781 146.7831 147.27 147.6956 147.7513 147.3419 147.2256 147.4094 147.5144 147.6206 147.7175 147.9425 148.2431 148.285 148.1788 148.3925 148.8769 149.2381 149.4781 149.6969 149.8638 149.9981 150.1738 150.44 150.7181 150.94 151.1094 151.095 150.8125 150.53 150.5569 150.8212 151.0788 151.3112 151.525 151.6825 151.9044 152.185 152.3381 152.46 152.7475 153.1044 153.4319 153.7875 154.2888 154.8519 155.2256 155.5081 156.0444 156.845 157.7419 158.7325 159.8013 161.095 162.6175 163.6862 163.7162 162.9044 161.8644 160.9037 160.1444 159.875 159.6831 159.3006 159.0412 158.6106 157.9744 157.5531 157.61 157.9681 157.975 157.3544 156.6487 156.3494 156.2981 156.4819 156.7888 156.7194 156.2625 155.8225 155.5819 155.26 155.015 155.0975 155.1181 155.2081 155.4944 155.7438 156.025 156.5706 157.1144 157.7825 158.9012 159.4025 159.1306 159.2525 159.7481 160.6337 161.9694 162.8169 163.1313 163.315 163.7019 164.3856 165.1981 166.1037 166.7506 167.1237 167.17 166.8862 166.9906 167.7825 168.5638 168.7656 168.2269 167.095 166.0862 165.3963 164.7563 164.3944 164.2875 163.6981 162.2681 160.1487 158.2419 157.5 157.5013 157.9062 158.1969 158.2575 158.7419 159.185 159.4362 160.0013 161.035 162.6519 164.4362 165.4006 165.3438 165.2012
140.835 140.42 140.5244 140.8963 141.1481 141.2656 141.3375 141.3863 141.3712 141.2487 141.3763 141.8412 142.3156 142.8281 143.2206 143.0838 142.8569 143.0344 143.1413 142.7162 142.2075 142.2238 142.57 143.0213 143.22 142.7581 142.4738 143.8644 145.1606 143.7087 141.9413 141.8087 142.1263 142.4113 142.855 143.2831 143.4369 143.4644 143.4425 143.7469 144.8112 145.8856 146.0562 146.0813 146.47 146.5756 146.7706 147.1175 147.2319 147.4238 147.5475 147.7569 148.0312 148.0869 148.0206 147.8575 147.8856 148.1325 148.3175 148.4575 148.6188 148.7844 149.105 149.4694 149.6144 149.7375 149.8825 149.9894 150.2544 150.5975 150.8463 151.0262 151.0794 150.9169 150.7144 150.7312 150.9406 151.1488 151.38 151.5338 151.5737 151.895 152.4337 152.785 152.9987 153.275 153.5988 153.8856 154.165 154.6444 155.2669 155.7256 156.0813 156.6056 157.3075 158.1175 159.1325 160.11 160.9788 162.1294 162.9369 162.62 161.7044 160.8331 160.0638 159.5475 159.4706 159.6531 159.9075 159.835 159.2406 158.3638 157.5737 157.4637 157.7812 157.7988 157.3006 156.7838 156.6169 156.5238 156.6119 156.7038 156.4556 156.0356 155.7962 155.9588 155.8925 155.4356 155.2056 155.1463 155.4969 156.1138 156.3375 156.5369 156.9006 157.4169 158.3644 159.6113 160.11 159.3256 158.7713 159.3475 160.725 162.2487 163.145 163.6931 164.2231 164.8606 165.4337 165.7263 166.0137 166.4288 167.0731 167.6556 167.8719 168.1962 168.8081 169.1006 168.9925 168.6056 167.74 166.5562 165.5031 164.88 164.4094 163.9856 163.2406 161.7681 160.0013 158.305 157.4419 157.7325 158.2688 158.1581 157.9125 158.635 159.9106 161.0363 161.9131 162.6594 164.2094 166.4912 167.4869 166.705 165.9856
140.2056 140.3025 140.4656 140.7831 141.0681 141.1006 141.0713 141.0775 141.035 141.0925 141.3644 141.7756 142.2838 142.8619 143.3087 143.3094 143.1144 143.1588 143.145 142.5531 141.755 141.4319 141.4631 141.61 141.3644 140.4931 140.2031 142.0938 143.9431 142.8913 141.7031 142.0013 142.3581 142.7113 143.3863 144.0694 144.4975 144.6537 144.6294 144.8469 145.3869 145.855 146.0081 146.2612 146.8544 147.1619 147.2075 147.1712 147.0531 147.3756 147.8575 148.2012 148.4462 148.5444 148.5256 148.4144 148.4819 148.7125 148.8881 149.0231 149.0894 149.0575 149.2456 149.5356 149.5562 149.6012 149.7081 149.8025 150.1275 150.5137 150.75 150.8881 150.9125 150.8206 150.7606 150.8281 150.9088 150.9869 151.3075 151.5712 151.6387 152.1325 152.8444 153.2787 153.5356 153.765 154.0769 154.4525 154.8144 155.2481 155.7587 156.21 156.6425 157.1712 157.7744 158.43 159.23 159.8969 160.3387 161.0544 161.6175 161.3613 160.6569 159.9613 159.4319 159.2169 159.3013 159.5725 159.8575 159.7144 159.1275 158.2988 157.5188 157.3319 157.4981 157.6194 157.42 157.0106 156.8731 156.8319 156.8438 156.7406 156.4462 156.2525 156.165 156.3256 156.3125 155.8194 155.4362 155.4044 156.0125 156.7637 156.9187 157.0125 157.0731 157.5287 158.7675 159.8869 160.2225 159.5444 158.8844 159.2612 160.2931 161.7194 162.9075 163.6537 164.7331 165.62 165.6031 165.5119 165.8819 166.3781 167.1219 167.9725 168.4781 168.9269 169.2306 168.9031 168.2375 167.7588 167.2431 166.1325 164.9156 164.4212 164.1844 163.5625 162.1375 160.2487 159.0131 158.2456 158.0775 158.6256 158.8894 158.7594 158.9156 159.8825 161.43 162.8069 163.5675 164.1594 165.9756 168.5612 169.4225 168.2538 166.9
140.1319 140.3788 140.4181 140.6362 140.9744 140.9981 141.0075 141.0631 141.0713 141.3825 141.8463 142.135 142.5112 143.085 143.4075 143.2269 142.7487 142.1594 141.6406 141.1075 140.5688 140.3506 140.3381 140.255 139.8175 139.1056 139.0488 141.3387 143.81 143.1575 142.2219 142.6 142.9194 143.4325 144.2825 145.0194 145.4325 145.4856 145.3575 145.4394 145.5756 145.7563 146.1994 146.6031 146.8875 147.09 147.0969 146.9925 147.1031 147.5706 148.0181 148.2431 148.3556 148.6438 149.0044 149.0369 148.9425 149.1506 149.5156 149.6294 149.5275 149.3481 149.2556 149.3656 149.4612 149.4719 149.4906 149.6319 149.9894 150.3731 150.6425 150.7544 150.6487 150.5312 150.6606 150.945 151.0412 151.0075 151.3719 151.8494 152.0494 152.5419 153.235 153.6631 153.9169 154.1494 154.5144 155.0363 155.5456 155.95 156.3175 156.7006 157.1338 157.6438 158.1787 158.7894 159.4119 159.75 159.9781 160.3506 160.5756 160.5006 160.2644 159.8819 159.4787 159.3525 159.5437 159.6113 159.3169 158.9913 158.6394 158.0663 157.4919 157.1775 157.12 157.4263 157.6019 157.2031 157.0256 157.1637 157.1913 157.1194 157.0013 156.9169 156.8062 156.7275 156.62 156.2869 155.8681 155.8206 156.3837 156.9275 157.1531 157.2912 157.1919 157.5419 158.7812 159.9144 160.3431 159.9 159.4769 159.9081 160.3731 161.3356 162.6106 163.4875 164.9081 165.7856 165.3375 165.3506 166.2894 167.1394 167.8125 168.3906 168.3494 168.3081 168.5394 168.1756 167.295 166.5988 166.325 165.8562 165.1481 164.57 163.6506 162.235 160.5044 158.8469 158.0063 158.1994 158.9731 159.5444 159.6869 159.7481 160.1244 161.1175 162.6656 164.0475 164.6375 165.3188 167.2287 169.3456 169.7575 168.5063 166.9937
140.2356 140.5506 140.4275 140.3994 140.7444 140.9325 141.04 141.1812 141.2444 141.4456 141.7944 141.9775 142.2231 142.5781 142.3781 141.7544 141.195 140.5112 139.8112 139.2538 139.0244 139.2762 139.5213 139.4263 139.0887 138.7531 138.9469 141.25 143.8169 143.4556 142.6831 142.9438 143.1506 143.7556 144.6875 145.235 145.3425 145.3656 145.4287 145.6381 145.9569 146.2806 146.5838 146.7406 146.6794 146.5444 146.5363 146.5994 146.8275 147.2838 147.6469 147.7444 147.8325 148.4206 149.1756 149.3269 149.12 149.3206 149.9194 150.2188 150.0375 149.6944 149.3819 149.3638 149.5963 149.7012 149.6706 149.7275 149.9613 150.3006 150.7206 150.9356 150.6994 150.5 150.7206 151.1888 151.5375 151.575 151.7606 152.2544 152.6744 153.0988 153.5325 153.905 154.2775 154.5925 154.9994 155.6156 156.2144 156.6169 156.9144 157.2031 157.5519 158 158.475 159.1569 159.9194 160.2513 160.3737 160.6169 160.85 160.8506 160.7563 160.5919 160.1881 159.9356 160.0994 160.2356 159.6475 158.8906 158.7737 158.6075 158.0569 157.5025 157.1325 157.3862 157.8262 157.5569 157.18 157.23 157.3781 157.5644 157.67 157.48 157.1512 156.8644 156.715 156.6675 156.44 156.2125 156.3806 156.7219 156.9894 157.1181 157.1812 157.6294 158.5794 159.6413 160.6206 160.79 160.41 160.6413 160.8681 161.4206 162.4337 163.3269 164.6313 165.3344 165.2425 165.8431 167.0725 168.0319 168.405 168.3844 167.995 167.705 167.7688 167.4675 166.7625 166.0881 165.9619 166.245 166.1475 165.0188 162.7019 160.3519 159.0369 158.3844 158.1719 159.0063 160.2812 160.8031 160.6438 160.4981 160.7775 161.5075 162.8087 164.4625 165.7025 166.615 167.8638 169.0106 168.9969 167.6856 166.2287
140.49 140.6925 140.4812 140.395 140.6219 140.6719 140.6881 140.9606 141.0725 140.8262 140.7075 140.7688 140.9006 140.8931 140.3212 139.7006 139.575 139.5131 139.2137 138.7563 138.5675 138.8219 138.975 138.8763 138.7281 138.6069 139.1662 141.7506 144.0969 143.6506 143.0056 143.1144 143.0906 143.4625 144.2437 144.8369 145.0306 145.2612 145.5656 145.845 146.4206 146.8669 146.5831 146.5369 146.78 146.4669 146.4231 146.8225 147.0388 147.2162 147.3112 147.2437 147.4969 148.3006 149.015 149.2406 149.3181 149.59 150.135 150.5906 150.5112 150.0994 149.7637 149.7162 149.9469 150.1444 150.1419 150.1338 150.3144 150.61 151.1044 151.4294 151.0688 150.7375 150.9444 151.4494 152.0137 152.2637 152.3681 152.7569 153.2681 153.6325 153.8294 154.1644 154.6869 155.0762 155.4875 156.1619 156.8338 157.2519 157.4875 157.6487 157.8987 158.4187 158.9975 159.6163 160.44 161.0425 161.2588 161.4888 161.7806 161.7619 161.5494 161.1806 160.6113 160.3544 160.5169 160.7225 160.1325 159.3819 159.7319 159.8625 159.2106 158.4487 157.6662 157.6775 158.3587 158.2481 157.4194 157.0338 157.2656 157.7819 157.9925 157.5988 157.1512 156.8475 156.6487 156.7863 156.9306 156.6119 156.3706 156.6119 156.8481 156.96 157.3325 158.0838 158.865 159.675 160.9662 161.6544 161.2031 161.2406 161.5594 161.7475 162.3412 163.1619 164.215 164.9 165.5462 166.7156 167.6763 168.2287 168.2125 167.9888 167.9219 167.5887 167.2612 166.8613 166.2581 166.0394 166.3812 167.0363 167.1963 165.79 162.8769 160.0137 158.6925 158.6869 159.3369 160.5813 161.9713 162.4463 161.6463 160.9881 161.2513 161.76 162.6987 164.7487 167.14 168.3325 168.4106 168.4625 168.2475 167.2094 166.1094
140.5681 140.5925 140.3625 140.2744 140.2681 140.1037 139.9831 140.1712 140.1981 139.7619 139.475 139.485 139.5481 139.3975 138.9306 138.7219 139.0363 139.3981 139.3988 139.1381 138.9669 138.9869 139.0181 139.0587 139.1575 139.3569 140.3463 143.2919 145.5306 144.6237 143.66 143.5425 143.2681 143.2419 143.65 144.4388 145.1581 145.475 145.3919 145.5744 146.4894 147.0213 146.4569 146.2912 146.5444 146.08 146.0813 147.0063 147.6237 147.7894 147.8231 147.6681 147.8456 148.4775 148.9187 149.2319 149.5769 149.84 150.2487 150.7269 150.7656 150.4081 150.14 150.1212 150.2781 150.4512 150.5213 150.59 150.8094 151.0725 151.4294 151.6606 151.3062 150.9725 151.2744 151.9012 152.4206 152.7819 153.075 153.3856 153.7181 154.0287 154.3419 154.7038 155.1481 155.5206 155.9331 156.6494 157.3931 157.8138 157.9606 158.1062 158.6044 159.4725 160.0663 160.4625 161.2181 161.8425 162.0681 162.1006 161.9556 161.8956 161.9931 161.5938 160.73 160.3225 160.3794 160.3638 159.8712 159.5469 160.0894 160.3694 159.9719 159.1931 158.1613 157.9906 158.74 158.7413 157.9044 157.5087 157.6837 158.0919 158.1256 157.5638 157.125 156.9413 156.785 156.8906 157.105 156.8938 156.66 156.8769 157.0794 157.1519 157.5506 158.3594 159.0906 159.9762 161.5806 162.53 162.1319 162.1125 162.3144 162.1394 162.5 163.185 164.0425 164.9962 166.0644 167.2994 168.0363 168.0406 167.4637 167.1062 167.0781 166.6681 166.3656 166.0912 165.7369 166.3156 167.5294 168.4806 168.5744 167.2888 164.8425 162.1119 160.2462 159.9987 161.2069 162.7456 163.7688 163.785 162.5875 161.5944 161.8694 162.4875 163.2506 165.4219 168.78 170.77 170.2131 168.9525 168.1344 167.4569 166.8737
140.2756 140.1275 139.6875 139.4225 139.3237 139.2462 139.2256 139.2838 139.1569 138.8013 138.5975 138.5312 138.5731 138.6037 138.5281 138.6356 139.0462 139.5325 139.7725 139.8425 139.99 140.1769 140.3512 140.5956 140.7637 140.9656 141.8644 144.6956 147.1806 146.3744 144.9131 144.1994 143.74 143.6144 143.6019 144.0869 145.0331 145.3981 144.635 144.5706 145.8412 146.62 146.4487 146.1431 145.98 145.8788 146.01 146.5925 147.3131 148.0194 148.5469 148.4919 148.4425 148.7325 149.06 149.5294 149.895 150.0725 150.4419 150.8319 150.8275 150.5612 150.4319 150.4875 150.6163 150.7694 150.8988 151.0163 151.1981 151.4125 151.5837 151.6075 151.38 151.2363 151.8044 152.6738 153.0531 153.3963 153.7844 153.9088 154.1187 154.6794 155.3606 155.7444 155.9362 156.1194 156.4563 157.1712 157.9113 158.2713 158.405 158.885 160.1075 161.255 161.355 161.3619 162.1413 162.7331 162.7506 162.5375 162.0388 161.6487 161.8369 161.8175 161.0631 160.4575 160.2244 159.9625 159.57 159.3069 159.5175 159.8994 159.8775 159.235 158.4206 158.3069 158.8775 158.8806 158.4619 158.4231 158.4919 158.63 158.5244 157.9538 157.3981 157.135 157.0869 157.1181 157.1594 157.14 157.08 157.1212 157.2194 157.2831 157.6344 158.42 159.155 160.27 162.1594 163.2631 163.0075 162.695 162.39 162.1869 162.8206 163.67 164.4888 165.4656 166.4381 167.5081 168.2194 167.8262 166.7688 165.9588 165.4431 165.1194 165.2931 165.5119 165.6431 166.7625 168.6619 170.1581 170.3163 169.0506 167.2825 165.2894 163.255 162.3987 163.3262 164.8319 165.6231 165.2706 163.97 162.7056 162.7456 163.8119 164.7337 166.3119 169.4138 171.9744 171.81 170.0919 168.76 168.1369 168.0619
139.6506 139.3675 138.8594 138.5513 138.5931 138.6763 138.785 138.7637 138.505 138.3169 138.335 138.2663 138.2737 138.53 138.8875 139.3144 139.8763 140.5931 141.2787 141.84 142.2844 142.5713 142.6775 142.5975 142.2369 141.895 142.2381 144.7356 147.7719 147.8744 146.4569 145.3494 144.8369 144.6769 144.3906 144.3225 144.8856 145.4644 144.7806 144.3625 145.2063 146.0431 146.5363 146.435 146.2056 146.5587 146.7538 146.5969 146.925 147.9975 148.9138 149.025 148.9044 148.9556 149.2219 149.7869 150.3106 150.6125 150.8963 151.0988 151.0694 150.875 150.8037 150.9369 151.115 151.3081 151.45 151.5131 151.6194 151.8581 152.0525 151.9819 151.7925 151.8169 152.5087 153.3862 153.7606 154.1219 154.3756 154.3531 154.7056 155.7006 156.7706 157.2519 157.4487 157.7462 158.0444 158.3594 158.6081 158.7819 159.1263 160.0831 161.7206 162.7406 162.4269 162.1225 162.7663 163.375 163.1869 162.83 162.3412 161.6694 161.57 161.6925 161.3331 160.8488 160.4538 160.0912 159.6156 159.0669 159.0388 159.6344 159.7181 159.0606 158.6131 158.5725 158.84 158.815 158.5806 158.4975 158.5488 158.9444 159.065 158.6369 158.0719 157.6687 157.5587 157.5331 157.5481 157.6994 157.5387 157.0694 156.9656 157.2413 157.8006 158.5744 159.11 160.1056 161.8981 163.0956 163.1456 162.785 162.375 162.3062 163.1375 164.2994 165.2625 166.0488 166.6562 167.3394 167.7544 167.1844 166.1056 165.0575 164.2 163.9394 164.4187 165.0844 165.5638 166.6925 168.5625 170.4656 171.3675 170.6075 169.3806 168.0325 166.0963 164.7131 164.8044 165.7525 166.7981 166.9444 165.78 164.5988 164.7194 165.7688 166.5475 167.2556 168.92 170.8094 171.0706 170.2775 169.5569 169.1219 169.6169
140.3606 140.0537 139.835 139.6888 139.9556 140.2931 140.4306 140.1463 139.5656 139.3575 139.62 139.8481 140.1288 140.7144 141.3788 142.0437 142.8906 143.9281 144.8575 145.4606 145.6875 145.7444 145.8869 145.745 144.9581 144.1269 144.0431 145.8619 148.5856 149.41 148.7856 148.1425 147.8362 147.7112 147.3037 146.7456 146.9075 147.4969 147.1656 146.7069 146.8831 147.315 147.8956 148.125 148.1256 148.3913 148.4469 148.1831 148.3219 149.105 149.8144 149.9206 149.83 149.8094 149.8556 150.2581 151.0956 151.8231 151.9863 151.9238 152.0844 152.1231 151.9612 152.0412 152.2075 152.295 152.27 152.1225 152.1481 152.4937 152.9462 153.1 152.9069 152.8463 153.3262 153.9212 154.2462 154.49 154.5887 154.805 155.6056 156.7881 157.7112 158.11 158.5431 159.27 159.6994 159.5844 159.2875 159.4413 160.2331 161.3825 162.6806 163.3819 163.1662 162.8819 163.0481 163.1087 162.7175 162.3725 162.0713 161.6387 161.4762 161.5806 161.5006 161.1337 160.6819 160.165 159.5519 159.0656 159.0125 159.4744 159.5056 158.9244 158.6356 158.425 158.3219 158.3313 158.2781 158.1569 158.1031 158.5712 158.9319 158.7381 158.4006 158.1044 157.9081 157.7675 157.92 158.4569 158.4919 157.7325 157.2238 157.5306 158.3244 159.0344 159.2375 159.8313 161.24 162.4138 162.8375 162.8331 162.6475 162.6187 163.3681 164.5594 165.6562 166.3881 166.5831 166.7069 166.7506 166.1225 165.1206 164.095 163.2431 163.0488 163.5156 164.2819 165.01 165.9181 167.4394 169.6094 171.2656 171.4 170.7475 169.4888 167.3369 165.6331 165.4256 166.1444 167.4325 168.2194 167.4612 166.7456 167.1237 167.6613 168.1244 168.4894 169.1862 170.1606 170.18 169.9863 169.9869 170.0038 170.7325
142.5663 142.4281 142.2912 141.7894 141.7781 142.285 142.3794 141.6006 140.7481 140.5875 141.0513 141.7825 142.5788 143.5156 144.3237 144.9037 145.6956 146.6712 147.2569 147.3237 146.9419 146.6237 147.1837 147.8663 147.49 146.7131 146.7 148.1519 150.2887 151.1631 151.1106 151.1 151.1844 151.4731 151.3194 150.7144 150.6537 150.7231 150.3031 150.2256 150.6438 150.7456 150.3725 150.1194 150.0381 149.8963 149.8025 149.8219 150.0513 150.5262 151.0169 151.2194 151.2525 151.0525 150.6719 150.795 151.7681 152.8369 153.1487 153.05 153.2931 153.67 153.7125 153.6819 153.6006 153.6075 153.5356 153.0556 152.8112 153.1362 153.8394 154.34 154.2363 154.0706 154.2863 154.6406 154.8188 154.7156 154.6931 155.4681 156.9012 157.87 158.0169 158.1744 158.7563 159.3625 159.7144 159.8881 159.92 160.3737 161.5631 162.8006 163.8056 164.2981 164.0087 163.5906 163.2413 162.5881 161.9331 161.6856 161.7012 161.5194 161.2281 161.2481 161.1731 160.7625 160.43 160.0006 159.3931 159.0087 158.8412 158.8444 158.81 158.6569 158.5813 158.2812 157.995 158.0431 158.1981 158.1269 157.7337 157.8837 158.3369 158.23 157.9812 157.8913 157.8169 157.8481 158.2975 158.9725 159.2156 158.6844 158.0663 158.34 159.2356 159.8619 160.0412 160.4875 161.4231 162.2456 162.7437 163.0175 162.9256 162.8806 163.5931 164.7956 165.8969 166.4219 166.2744 166.0244 165.7594 165.0663 164.0869 163.1537 162.5388 162.45 162.82 163.5262 164.3694 165.1456 166.4781 168.6919 170.4675 171.1 170.7069 169.1362 166.8444 165.4044 165.7131 166.845 168.2063 169.1956 169.1831 168.8806 168.4776 168.3227 168.9401 169.4281 169.9856 170.5513 170.335 170.1937 170.3788 170.6225 171.0969
142.9362 142.6606 142.2569 141.2231 140.6113 140.7825 140.7069 139.8669 139.5075 140.0663 141.0444 142.0769 142.855 143.6631 144.4812 144.9269 145.2525 145.6531 145.7363 145.5256 144.9775 144.4825 145.0856 146.0638 146.0725 145.765 146.2456 148.4444 151.1831 151.7388 151.6081 152.065 152.2063 152.2581 152.1775 152.1562 152.1894 151.6731 150.8519 151.0994 152.5981 153.3475 152.2406 151.0725 150.4969 149.7569 149.7419 150.2106 150.4494 150.8688 151.3069 151.6425 152.14 152.0231 151.26 151.3163 152.3025 153.1631 153.6125 153.8475 154.0569 154.3775 154.5894 154.6162 154.37 154.5025 154.8475 154.2219 153.4662 153.6013 154.365 155.0544 155.2688 155.3081 155.565 155.9512 155.99 155.7 155.7869 156.9588 158.6075 159.105 158.665 158.8625 159.6056 159.8469 159.8519 160.4475 161.1281 161.7663 163.0331 164.3131 165.1681 165.425 164.6556 163.7194 163.1856 162.4381 161.6306 161.4506 161.5194 161.1219 160.6969 160.6381 160.4069 160.0013 159.82 159.6231 159.1787 158.5644 158.0938 158.0456 158.26 158.6038 158.7575 158.3863 158.1269 158.3756 158.4494 158.0456 157.4888 157.4688 157.8294 157.7944 157.6306 157.7225 157.8425 158.2238 158.9225 159.12 158.9563 158.8025 158.8519 159.5556 160.3613 160.6906 161.1113 161.8225 162.3531 162.6913 163.085 163.4144 163.3331 163.3488 164.1156 165.2538 166.0775 166.2325 165.9 165.4925 164.9187 164.1706 163.3837 162.6406 162.3237 162.3744 162.6644 163.2025 163.9056 164.7369 165.9775 167.725 169.1369 169.6294 169.0988 167.6906 166.1031 165.4075 166.1056 167.4606 168.79 169.7975 170.5456 170.9081 169.9658 168.914 169.1068 169.608 170.1625 170.5581 170.6025 170.8062 171.13 171.3531 171.495
141.6081 141.0412 140.5013 139.7669 139.3881 139.3669 139.2994 139.1106 139.46 140.4769 141.4681 142.0137 142.3375 142.8 143.5819 144.1131 144.0912 144.0156 143.8719 143.7406 143.7506 143.9388 144.5 144.8469 144.7331 145.0494 146.0069 148.6187 151.7594 152.2875 152.2581 152.8406 152.6913 152.1406 151.7125 151.8813 151.9156 150.9987 149.8562 150.3644 152.6931 154.4856 154.05 152.7025 151.5912 150.5819 150.8231 151.5706 151.4475 151.2281 151.0306 151.0175 152.0919 152.6906 152.0575 152.2544 153.1781 153.6331 154.0281 154.5794 154.7794 154.5106 154.23 154.4294 154.6119 155.025 155.6825 155.1281 154.2063 154.4469 155.1512 155.7181 156.2944 156.5519 156.8431 157.3587 157.3975 157.2944 157.7706 158.8475 159.9125 159.9019 159.3156 159.7094 160.7344 161.0681 160.9494 161.57 162.2875 162.7619 163.9162 165.0019 165.45 165.315 164.2419 163.0344 162.5875 162.0813 161.3556 161.1894 160.8688 160.1144 159.9469 160.1925 160.1187 159.8806 159.5119 159.0725 158.8794 158.385 157.585 157.49 157.995 158.4425 158.5 158.1319 158.1044 158.5488 158.4025 157.8119 157.63 157.7406 157.78 157.7281 157.6806 157.8925 158.2225 158.6856 159.2456 159.1506 158.8725 159.0381 159.6425 160.5156 160.9719 161.1225 161.8669 162.8169 163.08 163.1494 163.5731 164.0069 164.0544 164.1862 164.8875 165.6488 165.9837 165.8869 165.5181 165.01 164.3156 163.7044 163.2437 162.7894 162.7194 162.9744 163.2525 163.5462 163.925 164.5594 165.5437 166.7275 167.5562 167.655 167.2525 166.6594 166.1613 166.0094 166.4956 167.76 169.0831 169.99 170.9563 171.8719 171.6857 170.5255 169.8569 170.0597 170.5231 170.9706 171.5081 172.0237 172.2462 172.185 172.0481
141.9238 141.6731 141.3687 141.1525 141.3031 141.475 141.4475 141.69 142.3225 142.9219 142.8856 142.2656 141.9538 142.2312 143.1006 143.8506 143.8913 143.7462 143.4931 143.3669 143.8856 144.8587 145.5206 145.2756 145.0644 145.9238 147.0737 149.3794 152.2031 152.6675 152.5544 152.9131 152.6894 152.2444 151.8356 151.8837 151.8994 151.0475 150.1875 151 153.1281 154.6494 154.5856 153.4769 152.295 151.7131 152.0256 152.3913 151.9088 151.0819 150.5031 150.4381 151.3731 152.17 152.19 152.7069 153.5437 153.845 154.17 154.8412 154.9863 154.2694 153.6588 154.0175 154.7044 155.385 155.9187 155.5319 155.1175 155.6531 156.1531 156.5075 157.2831 157.6569 157.8569 158.3269 158.5363 158.8038 159.4544 159.9575 159.9931 159.4888 159.0644 159.7381 161.0469 161.8231 161.9919 162.3613 162.5688 162.7863 163.7256 164.5644 164.7469 164.2538 163.2831 162.4231 162.0287 161.5569 160.955 160.665 160.1044 159.4375 159.5681 159.99 160.0762 160.0375 159.6269 158.9919 158.75 158.3587 157.5112 157.2475 157.6425 157.75 157.54 157.4113 157.7056 158.1394 157.9662 157.72 158.0338 158.4119 158.4675 158.3356 158.0531 158.0425 158.515 159.0944 159.43 159.3837 159.4312 159.7531 160.2375 160.615 160.7262 161.1469 162.1113 162.9569 163.3081 163.61 164.1544 164.7025 164.9238 165.0437 165.4156 165.7019 165.69 165.5156 165.0906 164.4181 163.8313 163.5725 163.4875 163.445 163.5844 163.8956 164.205 164.4275 164.6025 164.8706 165.4006 166.0319 166.3125 166.2962 166.4575 166.8019 167.0312 166.9612 167.0244 168.0669 169.355 170.3013 171.5 172.5794 172.8894 172.2717 171.654 171.8117 172.2213 172.7019 173.3131 173.6187 173.4406 173.0294 172.7075
144.2256 144.1363 144.1475 144.2581 144.4062 144.4756 144.1431 144.0569 144.4619 144.4569 143.7256 142.6187 141.9581 142.065 142.6913 143.3813 143.7525 143.6362 143.1025 143.0525 143.7975 144.6931 145.1419 144.8975 144.9569 146.0131 146.9775 148.9431 151.5825 151.6331 150.9362 151.275 151.3681 151.0938 150.7125 150.6475 150.6581 150.29 150.0431 150.7675 152.0581 152.5575 152.0612 151.2675 150.7637 150.7856 150.7875 150.5356 150.29 149.9563 149.8938 150.2781 150.8025 151.3775 151.99 152.6494 153.3375 153.7863 154.0663 154.4581 154.5869 154.2431 153.9263 154.1556 154.575 155.0375 155.5619 155.6056 155.7825 156.42 156.7731 157.2556 158.0381 158.3837 158.5737 158.8188 158.95 159.3062 159.7931 159.8456 159.3869 158.8225 158.8681 159.7012 160.7594 161.7306 162.2925 162.4337 162.4644 162.7944 163.41 163.8525 163.7656 163.01 162.2644 161.8931 161.5744 161.1556 160.7131 160.2981 159.8056 159.4825 159.6856 159.9381 159.9319 159.9456 159.6919 159.0412 158.4075 157.95 157.5494 157.3806 157.4294 157.2619 157.0206 157.0581 157.4138 157.6913 157.6381 157.7487 158.1931 158.6969 159.0794 159.0437 158.4931 158.1106 158.5606 159.4131 159.6944 159.6356 159.8844 160.2469 160.5238 160.5237 160.4731 161.025 161.9637 162.7206 163.4413 164.235 164.9037 165.385 165.6113 165.6138 165.5444 165.375 165.2188 165.1369 164.7413 164.0819 163.6544 163.5381 163.6281 163.8406 164.0731 164.3788 164.7937 165.155 165.3663 165.4425 165.5262 165.6525 165.73 166.025 166.7812 167.5806 167.8262 167.5612 167.4588 168.2825 169.5825 170.8763 172.4044 173.6031 174.0031 173.7019 173.4775 173.8712 174.3044 174.5894 174.7925 174.71 174.3731 173.9981 173.6869
145.7594 145.2812 145.4069 145.9319 146.1669 146.1144 145.5581 144.6031 143.9062 143.4662 143.0219 142.425 142.0363 141.9756 142.1613 142.7306 143.3044 143.0025 142.3081 142.6631 143.4556 143.7462 143.885 143.9462 144.3387 145.2781 145.86 147.53 149.9994 149.8656 148.9556 149.3969 149.7781 149.4425 148.9444 148.6731 148.3431 148.1913 148.4019 148.9725 149.6113 149.8306 149.7756 149.7744 149.8875 149.9187 149.56 149.2981 149.6781 150.0206 150.2469 150.7131 151.1925 151.7925 152.5556 152.9819 153.3644 154.1487 154.4825 154.2894 154.4175 154.7663 154.7525 154.5469 154.4738 154.6738 155.2856 155.8569 156.4787 157.135 157.4094 157.8475 158.4588 158.6719 158.7281 158.7975 158.7806 158.9075 159.1894 159.3544 159.2481 159.1381 159.5275 160.1512 160.6263 161.3975 162.0944 162.2769 162.6094 163.1525 163.5081 163.4637 162.8112 161.8644 161.3013 161.1712 161.0944 161.0325 160.9525 160.57 159.9919 159.6531 159.7262 159.9106 159.9706 159.9331 159.6187 158.8506 157.96 157.5237 157.5194 157.525 157.3906 157.2475 157.1725 157.2506 157.5406 157.6819 157.6562 157.7906 158.1356 158.6613 158.9881 158.8644 158.4962 158.2344 158.6681 159.6269 159.9219 159.7325 159.94 160.3587 160.6625 160.6963 160.6844 161.0881 161.8569 162.7281 163.7381 164.7825 165.5256 165.8944 166.0294 165.9456 165.5587 164.9525 164.6488 164.7188 164.5406 164.1419 163.865 163.7175 163.7294 163.8981 164.1506 164.5488 165.1219 165.6356 165.8831 165.8 165.5513 165.4675 165.6969 166.3144 167.3556 168.3662 168.4337 167.7238 167.4888 168.2956 169.7563 171.3869 172.8581 173.7981 174.2238 174.1156 174.0488 174.5906 175.085 175.4294 175.7725 175.6975 175.3369 175.1519 174.8375
145.9906 145.0844 144.9544 145.4469 145.6256 145.4406 144.8794 143.7038 142.6337 142.2206 142.0669 141.8644 141.6438 141.4544 141.6881 142.3556 142.8344 142.44 141.9806 142.635 143.0931 142.685 142.4831 142.5387 142.8994 143.5813 143.9531 145.6419 148.0744 148.0163 147.1481 147.3744 147.7369 147.6306 147.4594 147.555 147.6275 147.7525 148.1919 148.9119 149.2406 149.47 150.4794 151.4744 151.5256 151.0325 150.4888 150.4156 150.8306 151.1375 151.4206 151.8381 152.2388 152.7 153.3081 153.6444 154.0025 154.9787 155.3225 154.8244 154.945 155.5044 155.4856 154.9487 154.6881 154.9531 155.4787 156.1581 156.91 157.4619 157.6881 157.975 158.4219 158.5781 158.6512 158.8206 158.8106 158.6875 158.7306 159.0663 159.4194 159.6994 160.1413 160.6275 160.9962 161.6106 162.2494 162.5606 162.9575 163.345 163.425 162.9787 161.9769 161.1638 160.915 160.9863 161.0619 161.1744 161.4025 161.1387 160.4206 159.9019 159.7769 159.9512 160.1281 160.07 159.6519 158.8444 157.9763 157.4563 157.3812 157.4588 157.4019 157.3694 157.4556 157.6356 157.9156 157.99 157.8925 157.915 158.01 158.3294 158.6463 158.6219 158.5769 158.6244 158.8756 159.6431 160.1375 159.9181 159.9406 160.3894 160.7787 160.955 161.0788 161.4144 162.0694 162.9956 164.0831 165.1331 165.8356 166.1212 166.1925 166.1169 165.7056 164.9275 164.42 164.3919 164.2656 164.0587 163.985 163.9256 163.8862 163.9806 164.2669 164.7769 165.4519 166.0456 166.2725 166.0481 165.665 165.8237 166.3681 166.6031 167.3581 168.9131 169.3319 168.2775 167.7881 168.6413 170.1431 171.6037 172.5675 172.9937 173.2363 173.33 173.5631 174.26 174.9925 175.7181 176.4012 176.3081 176.0425 176.35 176.1269
146.0794 144.8663 144.3806 144.4275 144.2181 143.9881 143.8806 143.605 143.3275 143.1119 142.8325 142.7081 142.6187 142.4787 142.7031 143.2487 143.7844 143.6913 143.3419 143.7575 143.9169 143.1325 142.2925 141.8887 142.0719 142.5244 142.7762 144.5425 146.9775 146.8581 145.9738 146.0225 146.405 146.8844 147.3519 148.0762 149.0225 149.6419 150.07 150.8506 151.24 151.5394 153.1294 154.6525 154.4706 153.5206 152.8525 152.5513 152.1175 151.8087 152.1387 152.6381 152.8938 153.0706 153.4863 154.0737 154.7363 155.6375 156.105 155.9319 156.0381 156.1506 155.7587 155.2319 155.0412 155.4113 155.8619 156.0994 156.4569 157.035 157.6588 158.1656 158.34 158.2869 158.4612 158.6494 158.6206 158.4831 158.4456 158.8406 159.4569 159.95 160.4794 161.1938 161.815 162.2856 162.7319 162.9856 163.175 163.4606 163.2225 162.3331 161.5681 161.2162 161.1413 161.2706 161.3219 161.3938 161.5756 161.2225 160.5244 160.0956 159.9944 160.0562 160.0969 160.1831 159.9925 159.26 158.4138 157.8194 157.6006 157.63 157.6269 157.6669 157.9162 158.2287 158.3881 158.3131 158.1619 158.1194 158.02 158.135 158.6494 158.9975 159.1837 159.3456 159.2713 159.6744 160.3469 160.2694 160.2337 160.6894 161.0938 161.3194 161.4888 161.8181 162.4394 163.3087 164.3525 165.375 165.9981 166.1594 166.1269 166.035 165.7594 165.1556 164.5087 164.0844 163.8806 163.9837 164.1562 164.1675 164.1456 164.1969 164.4544 165.0131 165.7287 166.3231 166.5006 166.3456 166.125 166.4362 167.2556 167.3362 167.5775 168.8544 169.1881 168.3638 168.18 169.0369 170.2038 171.0544 171.4725 171.7894 172.2487 172.8419 173.5638 174.2731 174.8844 175.5325 175.975 175.57 175.7056 177.0762 177.3275
146.4294 145.3981 145.0706 145.1013 145.0356 145.1344 145.6075 146.0262 146.06 145.7844 145.3537 145.2056 145.4194 145.5275 145.5063 145.8044 146.4131 146.6294 146.3313 146.3081 146.4819 145.9325 144.6337 143.5237 143.2112 143.4419 143.6069 145.1944 147.3887 147.065 146.2319 146.565 147.2706 148.1275 148.8531 149.7238 150.9069 151.7325 152.2644 153.0456 153.6369 154.1369 155.4581 156.685 156.4362 155.64 155.365 155.03 153.9769 152.9531 152.505 152.6119 152.8381 152.8425 153.1575 153.9819 154.8619 155.5931 156.1663 156.5069 156.6712 156.2531 155.4875 155.1913 155.4156 155.9187 156.1619 156.0219 156.1006 156.7487 157.6594 158.1731 157.9544 157.5775 157.6431 157.8306 158.0856 158.4256 158.7219 159.145 159.6994 160.2644 161.0931 162.2681 163.0094 163.1938 163.4081 163.5406 163.5344 163.6506 163.215 162.2819 161.9337 161.7812 161.4375 161.2719 161.3094 161.5281 161.5163 160.9113 160.285 160.0369 160.055 160.0056 159.8956 160.2144 160.4069 159.8463 159.0144 158.4394 158.1531 158.0131 158.03 158.1763 158.4506 158.7275 158.7169 158.5869 158.4937 158.37 158.305 158.4756 158.9444 159.4512 159.81 159.9419 159.6725 159.8944 160.615 160.675 160.7344 161.2188 161.5744 161.7419 161.89 162.2388 162.8619 163.6669 164.6469 165.8069 166.4944 166.2975 165.8881 165.6019 165.3681 165.0319 164.3913 163.7394 163.6775 164.2456 164.7063 164.8 164.7769 164.7075 164.7781 165.2206 165.9125 166.4775 166.6469 166.705 166.7731 166.7444 167.3687 168.1231 168.3537 168.815 168.88 168.3062 168.2731 169.0494 169.8406 170.2762 170.5481 170.7756 171.4238 172.7556 174.0881 174.61 174.57 174.8431 175.4556 175.49 175.9619 177.5919 178.0419
147.9969 147.6706 147.8669 148.1987 148.4019 148.3987 148.59 148.8019 148.715 148.605 148.4581 148.4062 148.7912 149.0063 148.6831 148.5875 148.8531 149.0556 149.0031 148.975 149.4306 149.5556 148.2713 146.2869 145.2619 145.5825 146.055 147.5625 149.4 148.9156 148.0756 148.4088 149.04 149.6631 150.2162 150.9844 151.8906 152.4725 153.2181 154.1425 154.7012 155.1263 155.7456 156.1994 155.8775 155.6631 156.3306 156.6562 155.7388 154.3387 153.07 152.7437 153.0775 152.9856 152.9381 153.5119 154.4325 155.0175 155.3044 155.7306 156.01 155.6131 155.0562 155.1294 155.6431 156.0606 156.0969 155.95 155.9837 156.4812 157.0956 157.2469 156.9569 156.6862 156.8813 157.3962 158.1687 159.1106 159.8631 160.2356 160.4331 160.9375 162.0013 163.2863 163.8594 163.9425 164.2269 164.1875 163.7137 163.3994 163.13 162.7737 162.6056 162.295 161.6975 161.1687 161.1375 161.5112 161.4706 160.8594 160.2912 160.0581 160.0912 160.1325 160.1231 160.315 160.3712 160.0331 159.5006 159.03 158.645 158.2719 158.2156 158.4187 158.6669 158.8638 158.8219 158.8125 158.8294 158.61 158.5581 158.8325 159.2669 159.7325 160.0356 160.0606 159.7969 160.1687 160.97 161.0469 161.115 161.6575 162.0769 162.1537 162.3837 162.9456 163.6125 164.5175 165.4606 166.565 167.3431 166.8112 165.8356 165.1987 164.9556 164.8406 164.2744 163.7206 163.885 164.5831 165.2244 165.555 165.6044 165.4194 165.2469 165.4425 166.0762 166.6894 166.9037 166.9825 167.1956 167.2744 167.5038 168.3281 169.0031 169.4337 169.6175 169.0725 168.7175 169.1825 169.7144 169.9806 170.1681 170.2425 170.8144 172.3862 174.0144 174.6875 174.5725 174.7413 175.8081 176.9719 177.7762 178.3075 178.0769
150.6319 150.5894 150.8919 151.3775 151.5606 151.1369 150.6831 150.4662 150.3806 150.6269 150.9538 151.0688 151.2663 151.2213 150.5306 149.9756 150.0431 150.1444 150.1219 150.5525 151.5631 152.125 150.8225 148.41 147.2744 147.9806 148.8331 150.2356 151.7531 151.1337 150.0481 149.8775 149.9462 150.1456 150.5669 151.1694 151.7031 152.0437 152.6869 153.4844 153.8156 153.9544 154.1319 154.1212 153.8512 154.0488 155.1881 156.0312 155.4575 154.3144 153.385 153.1812 153.5056 153.3719 152.9637 153.0412 153.6994 154.06 154.0406 154.3512 154.7981 154.8219 154.6775 154.9631 155.4762 155.7812 155.8219 155.6856 155.7663 156.1938 156.4962 156.6744 156.9694 157.3706 157.83 158.3288 159.1581 160.3775 161.3819 161.7325 161.8925 162.3212 163.0513 163.8881 164.1562 164.2075 164.6006 164.2988 163.2688 162.8006 162.9337 163.0106 162.7975 162.4044 161.9719 161.425 161.2038 161.4956 161.6438 161.3581 160.8119 160.4325 160.5044 160.7688 160.8906 160.7287 160.3794 160.085 159.7569 159.3931 159.0156 158.5088 158.22 158.3737 158.7262 158.9675 158.9944 159.035 159.0256 158.7781 158.7194 159.1106 159.605 159.8725 160.0369 160.0931 159.9669 160.5013 161.3619 161.4669 161.5163 162.1219 162.6219 162.5781 163.0306 164.0912 164.9469 165.9975 166.7481 167.0875 167.6219 167.4844 166.5719 165.6856 165.2819 165.2081 164.7481 164.1962 164.2012 164.7619 165.5788 166.1281 166.2256 166.0106 165.7625 165.7913 166.2538 167.1263 167.6569 167.4619 167.5425 167.9856 167.9969 168.3606 169.3537 169.9263 170.0006 169.9369 169.8175 169.7088 169.7769 169.9538 170.1506 170.5087 171.2325 172.4688 173.8219 174.8306 175.2375 175.5788 176.7719 178.2294 178.765 178.2681 177.385
152.3862 152.2106 152.3656 152.8262 153.0094 152.4619 151.7287 151.4006 151.3581 151.5437 151.7287 151.6831 151.6438 151.5163 151.0488 150.6487 150.81 150.9956 151.0531 151.7413 152.8294 153.22 151.9438 149.805 148.8806 149.6431 150.3813 151.495 152.8512 151.9812 150.6181 150.3031 150.1875 150.3456 150.7394 151.1869 151.6463 151.9481 152.2575 152.6731 152.715 152.465 152.22 152.1394 152.2719 152.66 153.5469 154.1994 153.9263 153.4506 153.1806 153.0769 153.1138 153.0475 152.8319 152.7994 153.1381 153.3756 153.3906 153.5988 154.2113 154.6969 154.6181 154.7 155.3687 156.135 156.3812 156.1463 156.2606 156.7456 157.165 157.7625 158.5606 159.3744 159.8938 160.0925 160.6156 161.6806 162.57 162.9419 163.435 163.8075 163.8775 164.1512 164.1025 163.945 164.2094 163.8 162.7669 162.4056 162.595 162.5831 162.1938 161.9231 161.9669 161.7669 161.3819 161.4331 161.84 161.9294 161.465 161.0938 161.2931 161.6631 161.7475 161.4362 160.9662 160.4713 159.9381 159.5344 159.2369 158.8619 158.5106 158.5006 158.7894 159.1019 159.2525 159.2725 159.1594 158.9481 159.0531 159.6237 160.085 160.16 160.3188 160.4469 160.3406 160.8969 161.7931 161.9244 162.05 162.7056 163.1013 162.9688 163.495 164.8419 165.9594 166.9269 167.3644 167.0875 167.2787 167.6938 167.4094 166.7081 166.0981 165.87 165.5825 164.9756 164.5956 165.0188 165.9244 166.3406 166.3225 166.205 166.1531 166.3313 166.5863 167.4194 168.2231 167.9962 168.0244 168.5331 168.6387 168.9225 169.7631 170.5063 170.9012 171.1138 170.8788 170.2281 169.9519 170.22 170.6275 171.2944 172.25 173.2838 174.2944 175.2162 175.9725 176.8338 178.0169 178.7262 178.4456 177.6425 176.5481
151.7344 151.8531 152.0688 152.3219 152.405 151.8587 151.0406 150.7394 150.8525 150.9413 150.7956 150.6812 150.9575 151.3537 151.7162 151.9362 151.9794 152.0262 152.1712 152.8994 153.8931 154.1369 153.1175 151.405 150.4269 150.6638 151.085 152.2856 153.6875 152.7725 151.6787 151.4869 150.9981 150.7994 151.0612 151.6787 152.3025 152.6344 153.0556 153.4325 153.0831 152.0894 151.0625 150.9775 151.61 151.9644 152.4037 152.8281 152.815 152.86 152.9381 152.7975 152.6394 152.7081 152.8237 152.8138 152.9319 153.2462 153.6537 153.9094 154.3613 154.8975 154.7619 154.7625 155.8175 157.3031 157.9131 157.5488 157.2956 157.62 158.2706 159.0431 159.6694 160.1938 160.8663 161.2925 161.5594 162.1031 162.655 163.1044 163.7787 164.2412 164.1481 163.9294 163.53 163.4375 163.6537 163.0775 162.435 162.3963 162.2762 161.9394 161.4706 161.4769 162.02 162.0813 161.46 161.0519 161.4538 161.8387 161.6769 161.6156 161.9462 162.2906 162.2612 161.8925 161.4256 160.7875 160.0881 159.6056 159.3663 159.2675 159.0825 158.8362 158.835 159.1475 159.405 159.4637 159.3663 159.3025 159.6769 160.3581 160.6969 160.6963 160.8794 160.9756 160.8494 161.4919 162.305 162.0975 162.1725 162.9981 163.4231 163.3544 163.7706 164.9031 165.9912 166.7175 167.0019 166.8794 166.98 167.2619 167.2131 166.9294 166.4694 166.1531 165.9688 165.5831 165.2437 165.5006 166.1019 166.2494 166.16 166.175 166.4088 166.8669 167.0406 167.2669 167.8475 168.1594 168.4162 168.9575 169.5538 170.0675 170.5638 171.3794 172.0388 171.8456 171.3562 170.9681 170.7919 171.0144 171.4187 172.1275 173.2194 174.2906 175.1644 175.9381 176.9331 178.2381 179.0225 178.7437 178.0437 177.3037 176.0988
149.7 150.2275 150.3463 150.0775 149.8687 149.5144 149.0788 149.0956 149.4881 149.8169 149.8394 149.8944 150.5394 151.4281 152.2756 152.7419 152.755 152.8963 153.0625 153.8306 155.0281 155.2381 154.6656 153.9519 153.0663 152.5275 152.5369 153.6406 155.0063 154.7669 154.6263 154.4631 153.1544 152.0531 151.7094 151.9875 152.3619 152.9125 154.0188 154.4581 153.4138 151.8938 150.8381 150.8712 151.5088 151.61 151.8256 152.4969 152.8756 153.0956 153.1844 153.0781 152.9837 153.2363 153.5437 153.415 153.4456 153.8731 154.4944 154.8675 155.0356 155.2337 155.0981 155.225 156.3406 157.935 158.7125 158.3562 157.83 157.9125 158.355 158.8556 159.3038 159.6837 160.46 161.0444 161.1569 161.4356 161.8275 162.1881 162.7944 163.6144 163.9538 163.5625 163.0044 163.125 163.395 162.8281 162.5525 162.5525 161.8587 161.4444 161.4031 161.5813 162.2444 162.3687 161.5519 160.6913 160.7844 161.315 161.3906 161.5519 161.9656 162.2281 162.1487 161.7725 161.2925 160.7319 160.1444 159.6925 159.5838 159.6975 159.6819 159.3775 159.1537 159.3619 159.6706 159.8075 159.7413 159.7519 160.1725 160.8225 161.1825 161.2406 161.3606 161.38 161.3625 162.0587 162.6131 162.0631 162.15 163.2056 163.7306 163.7838 164.2131 165.0956 165.9075 166.3969 166.6631 166.7944 166.8887 166.9231 166.8256 166.6631 166.3881 166.0919 165.8687 165.6831 165.7175 166.0788 166.3956 166.4062 166.3638 166.4506 166.7263 167.1919 167.3944 167.2756 167.6888 168.45 168.7587 169.2713 170.3837 171.2506 171.5338 171.8594 172.2406 172.1219 172.0056 172.1694 172.2306 172.3163 172.5319 173.1319 174.2281 175.2719 176.0825 176.9325 178.1031 179.1562 179.1725 178.4463 177.7337 176.9331 175.7156
147.6925 148.3081 148.2169 147.4787 147.1194 147.3831 147.9 148.4337 148.9925 149.5669 149.7456 149.6194 150.095 150.9975 151.8469 152.2137 152.4012 153.0719 153.5725 154.3712 155.4662 155.6044 155.6594 156.0856 155.7213 155.085 154.6625 155.0119 156.1125 156.5887 156.905 156.585 155.0956 153.6475 152.8356 152.5988 152.6244 153.1731 154.41 154.5981 153.035 151.7625 151.455 151.4756 151.6613 151.7063 152.1019 153.0456 153.7156 153.7569 153.4756 153.5075 153.6406 153.7569 153.9325 154.0356 154.5506 155.1462 155.5494 155.8475 155.8687 155.82 155.81 156.0106 156.6588 157.64 158.2725 158.1394 157.8194 157.7506 157.69 157.8369 158.3856 159.0813 159.725 160.01 160.1669 160.5631 160.9994 161.2787 161.8875 162.9956 163.4987 163.085 162.6825 162.9187 163.2762 163.0587 162.7481 162.2262 161.3106 161.19 161.67 161.8381 162.1175 162.1975 161.6125 160.7875 160.5669 160.9119 160.9344 161.165 161.6275 161.795 161.7844 161.4713 160.9756 160.6244 160.2556 159.8269 159.8094 160.0094 160.0612 159.9325 159.7606 159.7944 159.9937 160.1987 160.2294 160.2006 160.3837 160.9525 161.5325 161.6775 161.6469 161.6375 161.7375 162.2669 162.635 162.3163 162.6475 163.6712 164.125 164.2988 164.8144 165.5344 166.1031 166.4844 166.8119 167.0837 167.2462 167.2613 167.0825 166.7944 166.5087 166.1906 165.8638 165.7325 166.1194 166.6956 166.7619 166.6206 166.7625 167.0394 167.2369 167.4425 167.65 167.6738 168.0206 168.7594 169.2856 170.1444 171.5612 172.4787 172.5881 172.595 172.91 173.0344 172.8994 173.1469 173.5431 173.7656 173.855 174.1706 175.0312 176.0119 176.9494 178.0456 179.0994 179.1994 178.3025 177.4781 176.9094 176.1969 175.2731
146.0656 146.5788 146.7331 146.2563 146.1219 146.8156 147.8075 148.5781 149.1288 149.7775 150.0538 149.825 149.9875 150.56 151.3506 151.8156 152.0194 152.6438 153.2831 154.1588 155.1569 155.615 156.2019 156.8487 156.7925 156.5513 155.9812 156.2038 157.6594 158.09 157.54 156.8 155.7281 154.4531 153.8687 154.1269 154.1913 154.2094 154.81 154.7525 153.4931 152.7669 152.51 151.98 151.7188 151.9044 152.5531 153.4375 153.8975 153.5044 152.8875 152.9362 153.1706 153.0537 153.1669 153.8469 154.8344 155.6125 155.9856 156.1794 156.1487 156.0856 156.2544 156.4594 156.66 157.0175 157.4081 157.6106 157.6362 157.4263 157.0356 157.0631 157.6044 158.3406 159.025 159.4394 159.8025 160.2231 160.7031 161.2019 161.92 162.8556 163.1138 162.6494 162.3906 162.7881 163.2269 162.945 162.1575 161.5287 161.2038 161.1438 161.4863 161.7481 161.7506 161.6181 161.3488 160.8469 160.495 160.5956 160.6306 161.0031 161.4725 161.5719 161.5931 161.3481 160.9431 160.7356 160.4194 159.9631 159.9619 160.1925 160.2975 160.3519 160.3562 160.2919 160.3169 160.5063 160.645 160.6369 160.6344 161.0319 161.5769 161.6913 161.62 161.7162 161.9238 162.3 162.7056 162.8963 163.4894 164.365 164.7744 165.0262 165.5131 166.09 166.5675 166.97 167.3681 167.7469 167.9656 167.8763 167.5131 167.1413 166.8925 166.5762 166.1806 166.1837 166.7875 167.0631 166.6362 166.5344 167.0681 167.6644 167.8956 167.7625 167.7781 168.0006 168.2669 168.98 170.1862 171.5462 172.7706 173.4375 173.4738 173.36 173.4581 173.4238 173.3231 173.81 174.5006 174.8906 175.1094 175.3687 175.9462 176.9031 178.0587 179.1694 179.7056 178.9187 177.3587 176.2269 175.68 175.2456 174.7569
145.0331 145.5819 146.4662 146.7306 146.8663 147.2912 147.7481 148.2369 148.6037 149.1512 149.5944 149.72 150.0581 150.5694 151.2437 151.65 151.8519 152.3262 152.9456 153.9612 155.0538 155.6731 156.1394 156.3175 155.9912 155.6506 155.2038 156.1862 158.2587 158.27 157.1825 156.8981 156.5938 155.4525 154.8794 155.2944 155.1294 154.5894 154.5538 154.3419 153.6425 153.3506 153.07 152.31 151.8163 151.9056 152.4763 153.2125 153.3131 152.6812 152.1362 151.9419 151.9956 152.115 152.4987 153.3919 154.4056 155.2162 155.5013 155.5188 155.6106 155.7319 156.0156 156.2569 156.3444 156.3831 156.5069 156.8931 157.3069 157.2525 156.7125 156.4906 156.8081 157.5031 158.505 159.2944 159.8175 160.2156 160.67 161.2563 161.8938 162.5969 162.9206 162.6494 162.5306 162.9706 163.1313 162.5419 161.6237 161.2762 161.4231 161.2131 161.2275 161.5981 161.6369 161.3594 161.2019 161.0319 160.7188 160.63 160.735 161.1281 161.4906 161.5456 161.515 161.3481 161.0769 160.87 160.5269 160.1244 160.0631 160.2556 160.5188 160.6519 160.6638 160.6556 160.6631 160.7606 160.8987 160.9425 160.885 161.0419 161.3069 161.4031 161.5312 161.8044 162.0375 162.3581 162.8638 163.3463 164.1194 165.0388 165.5144 165.7469 166.1562 166.7137 167.2437 167.7069 168.12 168.4781 168.5975 168.3488 167.8725 167.4781 167.29 167.1506 166.9031 166.915 167.3825 167.2131 166.56 166.6956 167.405 168.1069 168.3463 168.0938 168.035 168.3019 168.6644 169.61 171.1788 172.5262 173.5625 174.1812 173.9656 173.5394 173.3788 173.2769 173.5925 174.4094 175.1156 175.5294 175.9356 176.5819 177.5137 178.5756 179.4306 179.9912 180.1419 179.2363 177.4713 176.0006 175.2194 174.6362 174.1931
144.4138 145.2094 146.3156 146.8769 147.0425 147.1081 146.9288 146.9362 147.1225 147.6256 148.1862 148.4656 149.065 150.0044 150.7644 151.0631 151.425 152.1375 152.7887 153.6825 154.6763 155.0844 155.0144 154.5481 153.7875 153.34 153.4288 154.9025 156.5612 156.225 155.77 156.5475 157.0612 156.3025 155.4606 155.2019 154.5775 153.7413 153.27 152.9275 152.44 152.2875 152.5131 152.4494 152.165 152.0756 152.3981 152.885 152.7675 152.3194 152.2731 152.3794 152.5587 152.85 153.0106 153.3056 153.9738 154.7219 155.0462 155.0612 155.1169 155.2881 155.7694 156.3262 156.5188 156.2775 156.01 156.27 156.9744 157.2394 156.6637 156.1606 156.3331 157.2844 158.5769 159.3594 159.7831 160.0725 160.4306 160.9106 161.3212 161.9681 162.6275 162.69 162.6662 162.9469 162.87 162.45 161.8369 161.3788 161.4169 161.3331 161.3656 161.7025 161.7612 161.6506 161.6806 161.6162 161.3087 161.0788 161.0869 161.2606 161.4344 161.4837 161.4763 161.38 161.115 160.85 160.6462 160.4644 160.265 160.26 160.5575 160.6656 160.6237 160.6656 160.6687 160.7556 161.0163 161.2131 161.1975 161.2306 161.3444 161.4706 161.7619 162.1419 162.3275 162.6269 163.1981 163.6337 164.3625 165.3719 165.9081 166.0887 166.4606 167.0744 167.7219 168.3069 168.7431 168.9781 168.9563 168.6588 168.1925 167.7894 167.6206 167.72 167.7419 167.5963 167.7306 167.5444 167.1006 167.3019 167.8094 168.3581 168.7544 168.8606 168.8731 168.9444 169.3613 170.3494 171.635 172.8244 174.3125 175.2131 174.4919 173.8069 173.8844 174.0038 174.4531 175.1962 175.7563 176.0225 176.275 177.2663 178.9238 179.9969 180.0625 180.0081 180.2275 179.6881 177.9356 176.2019 175.1394 174.3694 173.8838
143.5994 144.46 145.05 145.3256 145.2887 145.2175 145.1981 145.4113 145.6263 146.0312 146.6906 147.0281 147.4881 148.4719 149.4438 150.0581 150.5488 151.1125 151.4362 151.9312 152.7737 153.2275 153.1575 152.5844 151.9225 151.94 152.6187 154.1506 155.2887 154.8187 154.7094 155.4231 155.8363 155.4594 154.4119 153.5688 152.8125 151.9006 151.4738 151.4431 151.3869 151.6263 152.2125 152.6081 152.4088 152.09 152.2606 152.6019 152.5431 152.2563 152.47 153.1681 153.7794 154.2656 154.3387 153.975 153.9906 154.6588 155.4156 155.5856 155.3275 155.3306 155.9056 156.6294 156.8594 156.6325 156.2988 156.275 156.7888 157.2831 157.1619 156.77 157.0169 158.1731 159.3106 159.8256 160.0056 160.0469 160.2344 160.5531 160.8594 161.5144 162.3913 162.6206 162.4 162.4725 162.4956 162.2775 161.7075 160.9819 160.8687 161.0781 161.3025 161.6138 161.7012 161.8344 162.0425 161.8706 161.6387 161.4962 161.2956 161.2294 161.3131 161.4275 161.5019 161.4206 161.0625 160.6969 160.7213 160.8481 160.6481 160.48 160.5719 160.57 160.5644 160.615 160.585 160.7169 161.0887 161.4244 161.5894 161.7112 161.825 162.0031 162.2787 162.5975 162.7994 163.21 163.8681 164.1275 164.6438 165.59 166.0225 166.1037 166.4588 167.12 167.8794 168.5813 169.015 169.115 169.0231 168.7619 168.345 168.0181 167.9637 168.1356 168.2431 168.1212 168.0875 168.1206 168.11 168.0963 168.0969 168.5225 169.3 169.9094 170.0262 169.9331 170.4106 171.2637 171.9713 173.0044 174.7331 175.8131 175.1981 174.5975 174.98 175.4594 175.92 176.4144 176.665 176.5631 176.5775 177.6794 179.4025 179.9662 179.3163 178.8075 178.8281 178.5644 177.2762 175.7162 174.6725 173.9506 173.6588
141.7506 142.4094 142.6144 142.8587 143.0069 143.0075 143.2981 143.8756 144.2494 144.4719 145.005 145.5919 146.0544 146.7513 147.6944 148.59 149.115 149.2031 149.02 149.2462 150.0663 150.8412 151.4088 151.5994 151.5156 151.6594 152.245 153.8231 155.1756 154.6906 154.1 154.0319 153.765 153.1431 151.9156 151.1056 150.6544 149.7956 149.5013 149.9362 150.4987 151.1875 151.7106 151.8525 151.5106 151.2244 151.5338 152.0731 152.365 152.2419 152.3744 152.9969 153.5625 154.2656 154.7119 154.4219 154.3038 154.8288 155.5437 155.7962 155.6938 155.7419 156.1381 156.7 156.9863 157.1 157.1013 156.9713 157.0112 157.4825 157.8931 157.74 158.115 159.4025 160.275 160.4331 160.3038 160.215 160.3694 160.5419 160.8087 161.405 162.13 162.275 161.8906 161.7462 161.6963 161.3794 160.7413 160.1125 160.1606 160.5625 160.7856 161.0806 161.3319 161.4756 161.5869 161.5437 161.5981 161.4894 161.085 160.9713 161.1712 161.3544 161.44 161.3625 160.9538 160.5612 160.7219 160.975 160.8094 160.6331 160.6525 160.6675 160.7287 160.7444 160.705 160.9037 161.2538 161.475 161.7169 162.0462 162.2688 162.5556 162.8925 163.1706 163.3825 163.8887 164.66 164.9544 165.3362 166.0369 166.2462 166.1619 166.4175 167.1156 167.9738 168.6925 169.0575 169.0994 169.01 168.7225 168.2737 168.08 168.2606 168.4469 168.4969 168.5975 168.625 168.6438 168.9319 168.895 168.4575 168.68 169.6069 170.4919 170.9919 171.0694 171.4819 172.1931 172.5969 173.4669 174.7762 175.5319 175.5319 175.4912 175.9519 176.5462 177.0813 177.4563 177.4069 177.0912 177.2012 178.1081 178.8806 178.5231 177.3994 176.5225 176.175 175.9787 175.3381 174.4088 173.7244 173.1894 173.1531
139.685 139.9594 140.0419 140.5856 141.2588 141.5688 141.7025 141.9094 142.31 142.6706 143.2538 144.0831 144.7131 145.3138 146.0781 147.0188 147.6387 147.595 147.3169 147.4563 148.2581 149.2413 150.2131 151.0419 151.395 151.3425 151.4062 152.8938 154.48 153.765 152.7081 152.3169 151.6869 150.8463 149.9781 149.765 149.5825 148.7175 148.2025 148.5094 149.135 149.7887 150.1706 150.0612 149.905 150.29 150.8862 151.5325 152.2131 152.3969 152.4169 152.6431 152.8575 153.2856 153.6862 153.6681 153.8156 154.2656 154.8131 155.4594 155.9287 156.1231 156.3894 156.9088 157.3813 157.4987 157.48 157.6387 157.7012 157.865 158.2056 158.3469 158.835 159.87 160.7281 160.8906 160.5706 160.4787 160.7619 161.0219 161.0494 161.0819 161.2969 161.3844 161.1369 160.8638 160.7238 160.4275 159.8856 159.45 159.6463 160.1212 160.2469 160.4688 160.7969 160.8325 160.7631 160.9487 161.3119 161.2081 160.8037 160.7962 161.0656 161.1763 161.2431 161.2206 160.8406 160.5275 160.6694 160.8288 160.63 160.4713 160.6025 160.795 160.9356 160.945 160.9269 161.1881 161.5675 161.6775 161.8119 162.2194 162.5788 162.9919 163.5213 163.9863 164.245 164.6837 165.4706 165.8938 166.2331 166.7119 166.81 166.5513 166.4644 167.0406 167.9863 168.7525 169.1606 169.2531 169.1138 168.7106 168.1712 167.9981 168.3225 168.4538 168.3244 168.6662 169.0869 169.1094 169.2969 169.4713 169.2244 169.2769 170.0687 171.1319 172.0587 172.2981 172.1919 172.4762 172.9462 173.7156 174.6019 175.0469 175.3044 175.7694 176.3631 176.8894 177.4113 177.8075 177.7812 177.7094 178.1162 178.4012 177.7356 176.5806 175.4288 174.3425 173.6819 173.5462 173.3531 172.7906 172.2725 172.05 172.2188
139.3706 139.4944 139.4294 139.6131 139.8831 140.15 140.2513 140.2112 140.5894 141.2919 142.2737 143.2437 143.6719 143.9856 144.6069 145.6044 146.4481 146.7294 146.5594 146.445 146.9744 147.735 148.5825 149.5381 150.1875 150.2669 150.0231 151.4481 153.2344 152.3138 151.2556 151.0413 150.2544 149.4156 149.0219 149.2244 149.04 148.4162 148.2744 148.3419 148.6913 149.47 150.0312 149.935 149.8869 150.6081 151.2156 151.6888 152.3862 152.4956 152.3212 152.4456 152.5275 152.7281 153.2312 153.5131 153.6738 154.0363 154.6625 155.5769 156.1056 156.305 156.7812 157.1544 157.3094 157.2812 157.2231 157.5887 157.9625 158.1456 158.4206 158.8606 159.3075 159.7431 160.4588 160.8156 160.6512 160.7162 161.0731 161.3644 161.01 160.3831 160.3262 160.6113 160.5744 160.2875 160.0737 159.7569 159.4588 159.3231 159.4231 159.6837 159.835 160.0269 160.2206 160.2675 160.2544 160.5206 161.0237 161.0919 160.8369 160.855 161.0612 161.0788 161.1331 161.1719 160.8406 160.5231 160.5225 160.5806 160.4619 160.3425 160.4844 160.7794 161.0112 161.1806 161.3456 161.6475 162.0262 162.1925 162.3219 162.6888 163.1756 163.89 164.5275 164.8087 165.1006 165.8687 166.7675 166.9056 166.9394 167.3862 167.6606 167.435 167.0338 167.185 167.8669 168.5325 169.0706 169.39 169.2038 168.6825 168.1731 168.0406 168.3412 168.4194 168.3119 168.7281 169.3519 169.5581 169.64 169.9175 170.0181 170.0981 170.8519 172.1169 173.2188 173.5106 173.1806 173.0287 173.2306 173.6938 174.3269 174.8038 175.1694 175.795 176.4937 177.0038 177.5256 178.0375 178.215 178.3456 178.5813 178.0388 176.4175 174.925 174.0237 172.8875 171.8913 171.8019 172.0013 171.5894 170.9056 170.8013 171.0537
139.4419 139.7787 139.7075 139.2706 138.74 138.6731 139.0494 139.4462 140.0269 140.8756 141.9106 142.655 142.745 142.8987 143.4119 144.185 145.1794 145.7706 145.48 145.1281 145.5919 146.3537 147.06 147.8288 148.5075 148.8231 148.855 150.5513 152.62 151.8031 150.8619 150.8694 149.8138 148.455 147.9656 148.3781 148.4688 148.365 148.8475 149.0713 149.515 150.565 151.1263 151.0312 150.8625 151.1919 151.6588 152.0419 152.5219 152.6356 152.695 153.0356 153.1525 153.4625 154.1856 154.605 154.6987 154.8544 155.3619 156.0175 156.17 156.3338 156.9706 156.9937 156.6162 156.7719 157.1125 157.39 157.6856 158.1625 158.6975 159.0688 159.2831 159.5356 160.0556 160.2506 160.1419 160.3919 160.8444 160.98 160.4581 159.8219 159.7644 160.155 160.2744 159.985 159.5319 159.105 159.225 159.535 159.4975 159.3744 159.4413 159.6656 159.8975 160.0681 160.1788 160.4494 160.8819 161.0312 160.8338 160.8025 161.0525 161.1369 161.1763 161.2706 161.1306 160.8744 160.6925 160.6106 160.6162 160.6106 160.7006 160.9825 161.2175 161.4512 161.8381 162.3362 162.6825 162.8006 163.0875 163.7156 164.6031 165.7575 166.1638 165.6756 166.1044 167.865 169.1169 168.7312 168.3194 168.9088 169.5137 169.5325 169.1413 168.7531 168.7119 168.825 169.0956 169.465 169.34 168.7806 168.3613 168.4006 168.6931 168.9069 169.0612 169.2856 169.6519 169.9544 170.0956 170.4462 170.6712 170.7494 171.5781 173.0044 174.2381 174.8394 174.8056 174.4069 174.0675 174.1438 174.6056 175.1125 175.4938 176.0681 176.7587 177.3125 177.8375 178.4012 178.7506 178.595 177.9119 176.58 174.7162 173.2238 172.4169 171.4987 170.64 170.4675 170.69 170.5106 169.9519 169.9044 170.1794
138.3325 138.8963 139.2688 139.0862 138.5475 138.4825 138.9806 139.5294 140.06 140.4913 141.0325 141.61 141.82 142.0013 142.2494 142.6844 143.5213 144.0338 143.9131 144.0806 145.2831 146.5719 146.9288 147.12 147.7119 148.2594 148.6269 150.4731 152.7331 152.1656 151.2088 151.3537 150.2787 148.3544 147.5038 147.9494 148.3475 148.5194 148.9675 149.45 150.22 151.0925 151.3631 151.1981 151.0406 151.4319 152.24 152.8075 153.1525 153.4144 153.805 154.2725 154.4962 154.9175 155.4931 155.8013 155.7762 155.6187 155.865 156.1681 156.0725 156.1231 156.4656 156.36 156.2194 156.7388 157.4381 157.8781 157.9512 158.2919 158.9131 159.0875 159.1656 159.46 159.7025 159.6719 159.6444 159.9919 160.3894 160.3231 160.0038 159.8275 159.6919 159.7769 159.8788 159.6006 159.0462 158.8919 159.5569 160.0644 159.895 159.5756 159.4581 159.6694 160.1881 160.5356 160.5587 160.6675 160.9512 161.0744 160.8519 160.7838 161.0712 161.2931 161.4937 161.7369 161.8513 161.7681 161.7156 161.7169 161.4744 161.2619 161.32 161.4919 161.6994 161.9563 162.3931 163.1306 163.5581 163.55 163.9981 164.9962 166.2456 167.7831 168.3375 167.7025 168.4381 170.7937 172.0575 171.6831 171.7388 172.6106 173.1425 173.1656 172.5931 171.5013 170.8681 170.7263 170.4356 170.1013 169.8069 169.2894 168.8525 169.0256 169.5131 169.8338 169.9113 169.9831 170.3075 170.6925 170.9487 171.2988 171.4925 171.6725 172.6794 174.0775 175.2756 176.185 176.3044 175.7675 175.2838 175.1306 175.4113 176.0419 176.5137 176.805 177.2525 177.7462 178.0513 178.5194 178.9281 178.1537 176.4856 174.7606 173.0606 171.745 171.1381 170.7219 170.1731 169.8225 169.7656 169.6731 169.4975 169.5944 169.8431
137.9381 138.7169 139.5519 139.745 139.3856 139.5631 140.0369 140.2694 140.35 140.1113 140.16 140.6875 140.9006 140.7981 140.9556 141.5513 142.1681 142.6769 143.2613 144.2156 145.8844 147.0644 146.9044 146.9694 147.9244 148.6431 148.81 150.425 152.7531 152.5844 151.7894 151.7487 150.7756 149.1119 148.2962 148.5788 148.8575 148.8638 148.9913 149.5969 150.4287 150.8037 150.8975 151.0119 151.2269 152.1081 153.4312 154.2125 154.3138 154.2437 154.3731 154.7263 155.1306 155.5119 155.8094 155.8675 155.5781 155.3463 155.5981 155.9231 156.0219 156.1081 156.0762 155.9169 156.1313 156.6562 157.3575 158.1656 158.4388 158.5569 158.8381 158.8963 159.0756 159.2688 159.2125 159.2756 159.6519 160.1206 160.2094 160.0025 159.9375 159.9538 159.935 159.9288 159.9056 159.7731 159.3675 159.4006 160.2544 160.8038 160.71 160.4494 160.2381 160.47 161.1544 161.4875 161.3025 161.2469 161.4263 161.6075 161.5975 161.3831 161.3506 161.59 161.8894 162.1906 162.4238 162.375 162.5862 163.05 162.6231 162.16 162.41 162.505 162.7563 163.2263 163.5531 164.1281 164.3212 164.1519 164.82 165.7875 166.7625 168.59 170.1325 170.5813 171.6975 173.7069 174.7069 174.9812 176.0806 177.0681 176.9894 176.6225 175.8431 174.4738 173.7294 173.7038 172.9525 171.6556 170.8644 170.2344 169.5856 169.7931 170.8638 171.4056 171.0844 171.0719 171.6487 172.2069 172.6344 172.9056 172.8356 173.0694 174.3044 175.5269 176.2363 176.9906 177.0375 176.3331 175.9888 175.9394 176.0938 177.0506 178.0538 178.095 177.985 178.1662 177.9769 177.8119 177.6556 176.3706 174.5544 173.17 172.0075 171.0494 170.6794 170.5825 170.23 169.8606 169.6413 169.5294 169.5425 169.6281 169.7538
138.6537 139.2962 139.985 140.0225 139.7519 140.2287 140.7487 140.7738 140.6237 140.2375 139.9875 139.9481 139.8669 139.8438 140.2225 140.96 141.43 142.1431 143.4106 144.6675 145.9388 146.6712 146.6212 147.0225 148.2094 148.9787 148.9806 150.3931 152.6938 152.9962 152.4331 151.7519 150.7513 149.9856 149.6175 149.7444 149.8463 149.6588 149.4106 149.755 150.3488 150.3488 150.3575 150.8731 151.5237 152.36 153.4206 154.0956 154.1263 153.9494 153.7944 153.9231 154.4162 154.7381 154.7563 154.4875 154.1837 154.4331 155.2012 155.9681 156.4519 156.6212 156.43 156.4688 156.6687 156.4606 156.8069 157.8519 158.3894 158.3513 158.2619 158.4469 158.9156 159.1387 159.1387 159.4031 159.9587 160.4413 160.5131 160.4637 160.4037 160.245 160.4056 160.7538 161.0306 161.0869 160.6344 160.4494 161.0806 161.5813 161.5881 161.6375 161.8131 162.1812 162.6756 162.7669 162.5437 162.665 162.9125 163.0256 163.0875 162.5819 161.9375 161.8944 162.0281 162.1175 162.2225 162.0969 162.2581 163.1106 163.3363 163.1925 163.5562 163.5744 163.9231 164.6775 164.9975 165.3956 165.31 164.7481 165.2244 166.1 166.8544 168.6138 170.7831 172.5862 174.1719 175.5462 176.7462 177.9413 179.4281 180.1844 179.545 178.735 178.2137 177.5875 177.1406 176.8444 175.6588 173.8163 172.4694 171.5038 170.5956 170.7056 172.2656 173.2725 172.7663 172.4381 172.9925 173.8019 174.585 174.9425 174.7538 174.8056 175.7356 176.7088 176.9975 177.2769 177.2413 176.4888 176.1125 176.2888 176.6819 177.7744 178.97 179.0875 178.6712 178.4756 177.6069 176.1519 175.04 173.8075 172.6675 171.9894 171.305 170.7363 170.5612 170.4138 170.1281 169.9106 169.7006 169.5638 169.5731 169.5919 169.6338
139.3994 139.7706 139.9094 139.5056 139.2331 139.7756 140.25 140.1375 139.97 139.8213 139.5506 139.1781 139.1706 139.5244 140.0256 140.7475 141.2381 141.9594 143.3225 144.63 145.7906 146.7931 147.235 147.5462 148.3419 149.0462 149.3406 151.0069 153.1825 153.2462 152.2462 151.1525 150.6381 150.5963 150.1806 149.9156 149.8675 149.6625 149.2019 149.1981 149.565 149.5675 149.6787 150.2787 150.9794 151.5181 151.9888 152.365 152.615 152.8694 152.9187 152.9406 153.3362 153.785 153.9819 153.9075 153.8444 154.2412 155.02 155.6512 156.1125 156.725 157.3763 158.2256 158.36 157.2344 157.0031 158.0762 158.6369 158.32 158.0825 158.4713 159.1169 159.8212 160.335 160.4812 160.7219 160.8938 160.9881 161.2988 161.4187 161.2925 161.4325 162.0906 162.8425 162.8288 162.0562 161.8956 162.5844 162.8725 162.6019 162.6938 163.2819 163.7112 164.0219 164.2731 164.3694 164.5856 164.6919 164.5838 164.425 163.7325 162.7081 162.3375 162.5631 162.5994 162.1856 161.8188 162.0075 163.06 164.0475 164.3613 164.46 164.1738 164.4475 165.3338 165.8369 166.2456 166.3212 165.7806 165.7931 166.6894 167.7063 169.2031 171.3356 173.6306 175.1981 176.04 177.5262 179.5631 181.3944 182.2894 181.8144 180.8794 180.3881 180.3619 180.215 179.5731 178.2344 176.0581 173.8538 172.5825 171.9306 171.9563 173.1381 174.2375 174.1362 173.6413 173.6825 174.5056 175.5619 175.9669 176.1362 176.3081 176.6669 177.4031 177.5769 177.3981 177.2844 176.7606 176.3456 176.5725 177.1594 177.9469 178.7744 179.0856 178.6744 177.9637 176.4337 174.44 173.2344 172.3206 171.7594 171.4819 170.7956 170.3987 170.4631 170.285 169.965 169.8056 169.6756 169.5287 169.5531 169.6687 169.6544
139.6331 139.9162 139.605 139.0075 138.7806 139.095 139.5531 139.5075 139.1925 139.0531 139.0319 139.1269 139.4131 139.6944 140.0444 140.7769 141.4669 142.1644 143.3331 144.6981 146.1025 147.5537 148.41 148.6031 148.9538 149.5581 150.3094 152.3081 154.1906 153.47 151.6263 150.3831 150.2038 150.2469 149.6356 149.18 149.0856 148.8419 148.3875 148.3669 148.73 148.9206 149.1312 149.6637 150.3062 150.765 151.2369 151.765 152.1537 152.5375 152.9919 153.295 153.465 154.0325 154.6975 154.9031 155.0206 154.9456 154.6613 154.4763 154.7944 156.4331 158.6075 159.7637 159.5431 158.7631 158.6331 159.2762 159.8513 159.6981 159.3625 159.585 160.1862 161.2294 162.0638 162.0856 162.0069 161.6744 161.5025 161.9775 162.1056 161.8206 162.1037 163.0225 163.6531 163.6356 163.0525 163.04 163.885 164.1544 163.7937 163.5694 163.7644 164.1181 164.6812 165.3463 165.6494 165.6025 165.3294 165.2225 165.1631 164.4919 163.5856 163.4181 164.1512 164.5112 163.5488 162.735 163.1144 164.0175 164.5981 164.9519 165.1731 164.8237 164.9006 165.6369 166.1188 166.1631 166.2125 166.2775 166.3844 167.2831 168.6069 170.0513 171.95 173.7825 174.91 175.6919 177.1644 179.5394 182.1306 183.83 183.8806 182.8731 182.0687 181.9937 181.8006 181.0963 180.2081 178.0731 174.925 173.1969 172.8125 172.8169 173.4406 174.3163 174.7681 174.4688 174.1219 174.8763 175.8625 175.9956 176.4681 177.01 177.1981 177.7381 177.7581 177.2637 176.9731 176.6444 176.4931 176.8013 177.1987 177.5225 177.955 178.2731 177.9875 176.9481 175.1681 173.6056 172.6875 171.7056 171.2487 171.0537 170.3837 170.0437 170.0988 170.02 169.8769 169.765 169.6881 169.5869 169.8237 170.2194 170.0331
139.0206 139.2869 139.0531 138.8138 138.9775 139.37 139.995 140.1537 139.8006 139.3394 139.1669 139.8669 140.5363 140.53 140.5612 141.1494 141.9169 142.7331 143.9194 145.3006 146.7481 148.2875 149.405 149.83 150.1644 150.88 151.7631 153.4419 154.9113 153.7894 151.5912 150.3294 150.0919 150.11 149.5956 149.4256 150.0144 150.2369 149.8419 149.6781 149.8606 149.8756 149.8512 150.3856 150.9056 150.9244 151.545 152.8913 153.4969 153.3788 154.0944 154.9369 154.7363 155.0444 155.9131 156.1881 156.375 155.9706 155.0013 154.5844 155.0225 157.0069 159.435 160.0175 159.5606 160.0094 160.5256 160.5462 161.0287 161.1363 160.4869 160.49 161.3412 162.32 162.8138 162.8013 162.9487 162.64 162.1506 162.13 161.6731 161.2175 161.7225 162.435 162.6844 163.0025 163.0088 163.03 163.8119 164.3575 164.2644 163.92 163.7156 164.0131 164.9219 165.6444 165.6969 165.6269 165.4312 165.3412 165.2288 164.5113 163.9512 164.4575 165.6588 165.9931 164.9169 164.2388 164.7337 165.24 164.9075 164.7325 165.1044 165.0175 165.075 165.5088 165.6906 165.6125 165.8188 166.1588 166.2944 167.2219 168.7606 170.0506 171.4337 172.6956 173.7538 175.1231 176.7863 178.9475 181.81 184.0606 184.0931 182.7162 181.6256 181.2144 180.9319 180.7437 180.8438 179.4125 176.0625 173.585 172.7038 172.6194 173.1237 173.9263 174.6144 174.5569 174.2462 174.8956 175.7681 175.9656 176.61 177.5069 177.76 177.715 177.3687 176.8719 176.5956 176.4856 176.6144 176.9012 177.0644 177.16 177.3694 177.7056 177.725 176.7681 174.9062 173.265 172.13 171.0744 170.6712 170.6012 170.2388 170.0006 169.9263 169.8319 169.8044 169.8231 169.8019 169.7069 170.1044 170.8338 170.7206
138.3112 138.8638 139.1294 139.2756 139.9625 140.765 141.2462 141.2719 141.2238 140.8906 140.6212 141.3919 142.0619 141.9944 142.2456 143.1037 143.9138 144.6544 145.5294 146.6363 148.0544 149.4319 150.3725 150.82 151.2806 152.3056 153.1962 154.2612 155.3094 154.2481 152.4681 151.8731 152.0394 152.1281 151.4575 151.3075 152.4044 153.1031 153.085 153.255 153.4625 153.1856 152.78 152.8269 152.4319 151.5419 151.995 153.8938 154.9331 154.6044 155.2694 156.4281 156.1619 156.0306 156.7731 157.385 157.5719 156.7769 155.9369 156.1356 156.7881 158.3456 160.14 160.4906 160.1931 160.4725 160.5656 160.2831 160.7012 160.845 159.8494 159.6225 160.7575 161.845 162.0562 161.925 162.4062 162.4569 161.7169 161.0713 160.4738 160.4044 160.8681 161.1981 161.4337 161.8794 162.2038 162.2031 162.5963 163.15 163.3794 163.345 163.1331 163.3244 164.1906 164.7462 164.6481 164.6775 164.6619 164.4713 164.1156 163.495 163.3331 164.2744 165.3613 165.1719 164.5819 164.8219 165.2819 165.6144 165.375 164.9775 165.1631 165.0731 164.9487 165.0306 165.0038 165.3331 166.0513 166.3969 166.3138 167.0262 168.4156 169.29 170.0975 171.2106 172.4462 174.2394 176.2944 178.1956 180.6819 182.8219 182.7106 181.4556 180.475 179.6156 179.0956 179.5775 180.4825 179.7581 176.9406 174.0544 172.7344 172.6625 172.9256 173.3656 173.9169 174.1581 174.1269 174.5919 175.4156 175.9987 176.865 177.94 178.0863 177.2462 176.6138 176.5638 176.655 176.7319 176.8725 177.0213 177.105 177.0238 176.9681 177.3406 177.2281 175.8625 173.8938 172.2025 171.1981 170.555 170.3425 170.4894 170.3956 170.1744 170.05 169.8913 169.8025 169.9187 170.005 169.9144 170.2381 171.0519 171.2069
138.4106 139.2544 139.8013 140.4012 141.5519 142.3875 142.455 142.2188 142.5619 143.1837 143.595 144.0775 144.1944 144.2144 144.9619 146.2044 147.1656 147.6206 147.8519 148.5887 149.9075 151.0031 151.5975 151.9812 152.34 153.285 154.2456 155.0725 156.0437 155.4362 154.4194 154.5213 154.7031 154.5131 153.9431 153.795 154.5075 155.1019 155.7238 156.7294 157.2019 156.71 155.9031 155.2287 154.0806 152.6794 152.6569 154.2669 155.4625 155.4806 155.9131 156.8219 157.0106 156.8431 157.105 157.8806 158.1938 157.1163 156.4831 157.2356 157.9637 159.115 160.5338 161.1637 161.0237 160.0587 159.2194 159.0988 159.2819 159.2325 158.5063 158.1738 158.8975 159.7219 159.9462 160.2063 160.825 160.9219 160.4269 159.9037 159.6062 159.7275 160.0988 160.64 160.9631 161.1256 161.52 161.3837 161.265 161.6825 162.1763 162.5919 162.5731 162.5206 162.8913 163.2337 163.2406 163.0975 162.9594 162.8044 162.5413 162.315 162.5681 163.4956 164.0513 163.625 163.6906 164.4825 164.76 164.9612 165.1706 165.2806 165.62 165.46 165.105 165.045 165.1519 165.6775 166.3544 166.67 166.64 167.0894 168.0525 168.6231 169.255 170.3313 171.5106 173.2744 175.5319 177.4031 179.3394 181.015 181.3219 181.1006 180.8319 179.9981 179.2106 179.5 180.0119 179.4238 177.4362 174.9094 173.6644 173.5331 173.4244 173.3325 173.4281 173.7669 174.1544 174.8038 175.5606 176.1831 177.1062 178.0137 177.7538 176.3862 175.6681 176.1169 176.7188 176.9212 176.9669 177.06 177.0344 176.4613 175.8706 175.9969 175.3844 173.6056 171.9794 170.9456 170.5419 170.3056 170.1031 170.2294 170.3294 170.2356 170.1444 170.0725 170.0256 170.0206 170.025 170.0612 170.3763 170.9463 171.0231
139.3638 140.0238 140.655 141.8919 143.2875 143.805 143.5912 143.1669 143.6256 144.9306 145.7162 145.815 145.4494 145.4275 146.3438 147.8144 149.0969 149.4362 149.47 150.4413 151.9775 152.6888 152.6738 152.9925 153.4219 153.8581 154.2462 155.2637 156.6888 156.46 155.6975 155.5844 155.5306 155.4113 155.2256 155.1406 155.4913 156.2094 157.0231 157.94 158.3288 157.5406 156.4819 155.96 155.4144 154.3725 153.8625 154.685 155.3319 155.4169 155.6881 156.0587 156.6344 157.1375 157.31 157.7669 158.1281 157.4369 157.1269 157.8581 158.2175 158.7369 159.7044 160.2319 160.0338 158.9469 158.1025 158.0206 157.7538 157.3225 157.0625 157.0375 157.3963 157.87 158.2894 159.0813 159.8119 159.9044 159.7737 159.5706 159.3656 159.4312 159.8469 160.5294 160.815 160.9662 161.4012 161.2506 160.9994 161.3525 161.8112 162.2919 162.4937 162.29 162.33 162.5594 162.5331 162.31 162.2956 162.3519 162.1987 162.1131 162.4425 163.115 163.2925 162.9069 163.1113 163.8219 164.0569 164.11 164.3831 164.9019 165.4625 165.4394 165.1831 165.3262 165.7206 166.0431 166.2563 166.4631 166.56 166.9025 167.6644 168.4675 169.2669 170.0544 171.0319 172.7444 174.9012 176.5562 177.8875 179.1787 180.1925 180.8944 181.0375 180.5837 180.0237 179.7006 179.2869 178.6738 177.4212 175.5169 174.3956 174.085 174.0081 173.9962 173.8169 173.8981 174.455 175.3106 176.0087 176.5244 177.2431 177.9313 177.4662 175.9644 175.3375 175.92 176.6219 176.8375 176.8256 176.8038 176.3831 175.2513 174.3737 174.3231 173.5663 172.095 171.0006 170.3681 170.2625 170.2287 169.9512 169.895 170.1938 170.3931 170.3125 170.275 170.3569 170.18 169.9913 170.2069 170.5688 170.9269 170.8406
140.7663 140.7513 141.2762 142.8756 144.1475 144.2375 144.0719 143.9831 144.3013 145.0338 145.3094 144.9606 144.3169 144.3562 145.7519 147.8925 149.4113 149.6975 150.0163 151.5569 153.3125 153.4156 152.5137 152.2806 152.7863 153.1138 152.8694 154.0656 155.9588 155.92 155.1719 154.7994 155.0506 155.35 155.1862 155.1225 155.4362 156.1119 156.5287 156.7412 156.6562 155.7394 155.0212 155.0788 155.3175 155.1975 154.7681 154.7394 154.9119 154.9012 154.7019 154.6163 155.1794 156.4131 157.2394 157.4138 157.6875 157.5019 157.3531 157.8444 157.8813 157.7831 158.0688 157.8844 157.32 157.0587 156.9738 156.81 156.5013 156.2694 156.3406 156.5719 157.0806 157.7575 158.3994 159.2094 159.7888 159.85 159.7481 159.5825 159.5587 159.825 160.2406 160.5213 160.5025 160.85 161.4375 161.4175 161.1856 161.4031 161.9856 162.5956 162.7725 162.5538 162.5256 162.5844 162.4094 162.3369 162.67 162.8631 162.6962 162.6638 162.8813 163.1494 163.0725 162.7556 162.9206 163.4669 163.6588 163.6613 164.0094 164.5437 164.9494 165.0188 164.9494 165.3387 165.9256 166.0694 166.0538 166.2606 166.4138 166.4481 167.0356 168.2944 169.2388 169.8119 170.825 172.4769 174.2331 175.3987 176.2094 177.2831 178.5919 179.3556 179.2544 178.905 178.5562 178.1488 177.8813 177.6931 176.7462 175.2031 174.3969 174.2219 174.3569 174.6744 174.6413 174.615 175.0488 175.81 176.5019 176.9181 177.1906 177.5625 177.2737 176.2206 175.8594 176.1725 176.4769 176.5775 176.5425 176.1613 175.1044 173.8681 173.2844 173.2244 172.4775 171.4138 170.7744 170.275 170.0925 170.0938 169.9444 170.0206 170.4781 170.7606 170.5475 170.3013 170.3987 170.3244 170.2331 170.5237 170.8337 171.2344 171.3763
141.905 141.5488 141.7419 143.0519 143.8775 143.6219 143.6794 144.2588 144.6319 144.6456 144.3775 143.9075 143.8369 144.5231 145.9244 147.825 149.0925 149.4119 150.0988 151.6269 152.5544 152.06 151.0788 150.4962 150.6613 151.0513 150.855 151.8875 153.9413 154.1837 153.695 153.8169 154.3275 154.5406 154.2487 154.3244 154.5306 154.5788 154.6275 154.4456 153.8463 153.1981 153.2513 153.9506 154.69 154.9506 154.5912 154.3694 154.7119 154.78 154.375 154.2506 154.4181 155.2337 156.1837 156.4694 156.6556 156.4219 156.1113 156.445 156.6413 156.6025 156.6488 156.2369 155.57 155.5981 156.2256 156.7556 156.9394 157.0663 157.3763 157.7112 158.2231 158.9187 159.5612 160.1281 160.2838 160.08 159.9481 159.9869 160.18 160.5706 161.0262 160.9644 160.5038 160.6675 161.2069 161.1781 160.9544 161.2006 162.1056 163.0875 163.2631 162.9206 162.7119 162.6194 162.4519 162.4669 162.8544 163.1387 163.1106 163.2125 163.4244 163.405 163.2744 163.1756 163.2656 163.66 163.9413 163.9819 164.2294 164.5525 164.7637 164.8625 164.8038 165.1569 165.8412 166.14 166.1594 166.3213 166.5481 166.4906 166.7175 167.7256 168.6744 169.4369 170.6281 172.3037 174.0462 175.0406 175.3675 176.1294 177.1525 177.2956 176.8094 176.43 176.1313 175.9656 176.1294 176.395 175.9894 175.055 174.5775 174.4381 174.4588 174.68 174.785 174.9494 175.4956 176.3619 177.0587 177.255 177.1962 177.2331 177.0881 176.5275 176.0931 175.9763 176.0675 176.1987 176.2094 175.4831 173.94 172.8706 172.6494 172.5312 171.8381 171.0731 170.7213 170.3594 170.06 169.9731 170.0031 170.3294 170.7375 170.8244 170.6225 170.3506 170.3356 170.3288 170.3706 170.6812 171.0106 171.54 172.1687
142.1056 142.4056 142.4706 142.7962 143.3063 143.45 143.4763 143.79 144.1313 144.3138 144.0506 143.9725 145.2569 146.5925 146.9025 147.4019 148.3706 148.9944 149.6281 150.4206 150.3288 149.8244 149.5338 149.25 149.2063 149.4131 149.3094 150.2063 152.2588 152.3763 151.6444 152.0663 152.6937 152.9575 152.6731 152.3706 152.3094 152.2238 152.2612 152.1869 151.8856 151.8356 152.3444 153.3425 154.3013 154.5844 154.4175 154.5338 154.8044 154.8044 154.745 154.6444 154.305 154.2881 154.9538 155.6588 155.7413 155.2637 155.045 155.3331 155.5488 155.8706 156.46 156.6494 156.4644 156.5938 157.3663 158.235 158.4981 158.7269 159.3806 159.9131 160.0762 160.1738 160.4569 160.6962 160.5669 160.245 160.1656 160.4575 160.6212 160.7738 161.185 161.1631 160.7156 160.6094 160.9238 161.0125 160.9081 161.1219 161.9581 162.9519 163.0381 162.6275 162.5906 162.67 162.5363 162.4825 162.7719 163.165 163.3106 163.38 163.5369 163.6106 163.835 163.9563 163.7787 164.0388 164.6562 164.835 164.6987 164.7375 165.0488 165.305 165.1469 165.2156 165.82 166.2744 166.3669 166.4031 166.6919 167.0137 167.1006 167.4956 168.3125 169.275 170.3981 172.0919 174.4794 175.9225 175.96 176.2494 176.6656 176.2287 175.5656 175.2619 175.1925 175.1044 174.86 174.9062 175.1944 175.1081 174.6763 174.2875 174.2075 174.3669 174.55 175.0175 175.9831 176.9819 177.4575 177.445 177.3763 177.3425 177.0075 176.1856 175.4394 175.2981 175.4987 175.6981 175.7919 175.1694 173.7538 172.6975 172.3237 172.0706 171.58 171.0756 170.6825 170.2487 169.9637 169.8669 169.9563 170.3463 170.5669 170.4437 170.4881 170.58 170.5356 170.425 170.4675 170.8206 171.2681 171.86 172.6619
141.6719 142.71 142.7387 142.1294 142.5688 143.3231 143.3469 143.0794 142.9556 143.1956 143.4006 144.0594 145.7238 146.6362 146.2106 146.3194 147.5269 148.29 148.2863 148.3087 148.2419 148.1594 148.2831 148.4375 148.5306 148.4538 148.0513 148.89 150.7762 150.5056 149.3431 149.4644 150.1375 150.8475 150.7744 150.1613 150.2825 150.8037 150.94 150.9925 151.1919 151.4856 151.7756 152.24 153.0194 153.6581 153.8881 153.9375 153.9425 153.9787 154.075 153.9256 153.6556 153.9219 154.9462 155.9012 155.985 155.5156 155.32 155.7381 156.2806 156.8406 157.7487 158.5144 158.9431 159.2706 159.5575 159.715 159.5788 159.9637 160.8456 161.3463 161.3262 160.8106 160.4131 160.5938 160.8069 160.7025 160.59 160.6025 160.4881 160.3206 160.4138 160.5669 160.4756 160.3656 160.7081 161.0806 161.0506 161.1356 161.7594 162.5244 162.555 162.3206 162.5712 162.8181 162.7713 162.8169 163.0294 163.1525 163.1925 163.2475 163.4456 163.8788 164.3956 164.4669 164.2475 164.4913 165.0544 165.2456 165.0163 164.9669 165.4244 165.9894 165.995 165.8 166.0619 166.5275 166.7587 166.73 167.1037 167.7081 167.6413 167.7819 168.6556 169.4681 170.1013 171.4863 173.9381 175.4819 175.4219 175.2969 175.3944 175.0963 174.6631 174.5638 174.6231 174.4569 174.0612 173.8575 174.0587 174.2694 174.0963 173.865 173.9906 174.4019 174.8094 175.5269 176.6506 177.3581 177.5563 177.4812 177.3775 177.4487 176.8044 175.2287 174.2819 174.475 174.8169 175.0063 175.0781 174.645 173.7344 172.8387 172.1694 171.7475 171.475 171.1763 170.6356 170.0813 169.8481 169.6194 169.4669 169.8075 170.1744 170.2256 170.4269 170.6738 170.7088 170.6413 170.7175 171.1438 171.7088 172.2838 172.8681
140.9919 142.1119 142.1781 141.5287 141.8556 142.425 142.5056 142.2363 141.8062 141.7069 142.1237 143.22 144.5175 144.9469 144.7538 145.3262 146.8225 147.5862 147.1288 146.7856 147.06 147.06 147.0119 147.3531 147.4869 147.11 146.4062 147.2263 148.9138 148.4337 147.4437 147.6831 148.3731 149.0856 149.38 149.3156 149.6894 150.555 150.9 150.9069 151.0925 151.2406 151.0237 150.8606 151.3025 151.87 152.0612 151.9438 152.0675 152.4094 152.84 153.2513 153.445 154.2812 155.8231 156.8062 157.0019 156.8562 156.5294 156.8519 157.7969 158.4156 159.2294 160.3075 160.84 160.89 160.7444 160.66 160.6669 160.9238 161.4806 161.9113 161.9769 161.4563 160.9056 161.0125 161.1569 161.1231 161.0987 160.7381 160.165 159.6975 159.6506 159.9869 160.1438 160.1537 160.5087 160.8969 160.9694 161.2494 161.8619 162.3737 162.4906 162.4406 162.7281 163.1463 163.3506 163.5506 163.5663 163.3037 163.185 163.2275 163.4888 164.0737 164.585 164.6531 164.6656 164.9256 165.1769 165.3306 165.5306 165.7112 165.8737 166.5281 167.1775 167.1575 167.2969 168.0013 168.2925 167.9738 168.4525 168.9656 168.1925 168.3775 169.6731 169.9275 169.7263 170.7663 172.7494 173.5912 173.1037 173.0281 173.6113 173.8094 173.7381 173.9369 173.9569 173.71 173.6075 173.515 173.4769 173.6619 173.8175 173.8606 174.0844 174.6869 175.3813 176.2319 177.0887 177.3975 177.5237 177.2056 176.7875 177.1469 176.5644 174.6144 173.5994 173.8025 173.9781 173.9944 173.8806 173.49 172.9375 172.3125 171.7975 171.4994 171.3681 171.1931 170.6525 170.1306 169.8894 169.3963 168.9594 169.38 170.1144 170.4525 170.5969 170.6237 170.7256 170.8587 170.975 171.4525 172.0144 172.4106 172.6975
