ncols         88
nrows         127
xllcorner     185525
yllcorner     684125
cellsize      50
NODATA_value  -9999
37.1275 40.28 42.69188 43.54562 44.13313 45.11562 45.62312 45.46875 44.3625 41.50063 36.20687 29.83875 28.89375 34.77625 39.03938 39.14875 39.00375 39.57125 40.6 42.01313 43.42062 44.085 43.24187 40.93937 37.99625 35.23875 33.0025 31.27687 30.15187 29.52938 28.14688 25.005 21.31688 18.3225 16.04625 14.41937 13.455 13.18812 13.30062 13.0325 12.44687 12.175 12.745 14.0725 15.005 15.45562 15.92062 16.39688 16.78312 16.95375 17.78312 19.3525 20.39812 20.70812 20.79 21.02125 21.25125 21.465 22.12938 23.05625 24.00937 25.05062 26.02375 26.85312 27.60938 28.295 29.04 29.95437 30.92063 32.195 33.99062 35.66 36.64375 36.95125 36.85062 36.74375 36.7175 36.59875 36.60812 37.08562 37.80375 38.59063 39.71125 41.1775 42.56875 43.90562 45.57187 47.39
37.16875 39.86813 41.72 42.3975 43.55 44.7025 44.01875 42.8775 42.18687 41.03563 38.62437 35.93625 35.97 37.98375 38.78 38.70312 39.21625 40.14563 41.3025 42.69437 43.97375 44.18312 42.32375 39.105 35.96188 33.42562 31.4225 29.81437 28.72875 27.98625 26.34063 23.19312 19.89375 17.465 15.66875 14.215 13.29125 13.07063 13.1075 12.845 12.45438 12.25062 12.89188 14.26437 14.97125 15.32187 15.94125 16.52375 16.91937 17.22 18.04062 19.14 19.69 19.92687 20.28188 20.70875 21.12125 21.55875 22.09625 22.73812 23.5575 24.58125 25.65187 26.62437 27.49688 28.30812 29.19062 30.315 31.71375 33.41 35.26062 36.79 37.6475 37.82 37.56688 37.32312 37.19563 36.96875 36.81937 37.1525 37.8 38.56875 39.825 41.39938 42.34375 43.02375 44.51625 46.38688
37.00625 39.02375 40.43813 41.05188 42.23375 43.29813 42.18125 40.8 40.6375 40.355 39.46062 38.71687 38.59813 38.755 39.065 39.56875 40.4375 41.54125 42.7625 44.01313 44.75813 44.07375 41.2575 37.6675 34.69375 32.3625 30.60062 29.37938 28.83187 28.19375 25.80812 22.1 19.07313 17.01562 15.31437 13.91938 13.0375 12.7675 12.7125 12.4975 12.3525 12.5125 13.33625 14.42313 14.85188 15.23188 15.955 16.68625 17.22187 17.59375 18.30938 19.09188 19.37125 19.49688 19.93312 20.49813 20.98812 21.45188 21.89062 22.32875 22.88688 23.69 24.66625 25.62062 26.53938 27.515 28.615 30.02188 31.98125 34.3675 36.40937 37.60812 38.20813 38.37062 38.22625 38.06375 37.84625 37.45687 37.16562 37.36375 38.1025 39.28938 41.005 42.76062 43.57938 43.81562 44.46375 45.5475
36.10938 37.80062 39.30687 39.91187 40.4 40.8925 40.2225 39.46125 39.58437 39.60437 39.18187 38.86063 38.95937 39.60125 40.685 41.61938 42.45813 43.49313 44.64687 45.44 45.42812 43.96437 40.60875 37.03375 34.17188 31.93937 30.70687 30.08 29.51063 28.085 24.88437 21.21187 18.75937 16.91625 15.045 13.57875 12.8075 12.55625 12.4125 12.4125 12.69063 13.08625 13.6925 14.33813 14.76437 15.3125 15.91937 16.52312 17.21375 17.77687 18.3675 18.90313 19.14313 19.3925 19.82063 20.39 20.99875 21.39 21.6975 22.01625 22.345 22.92813 23.76062 24.6625 25.65562 26.8225 28.18 29.84438 32.23 35.13 37.30875 38.42875 39.03938 39.39375 39.645 39.71375 39.21563 38.28875 37.63 37.73625 38.62437 40.03375 42.07812 44.13625 45.28875 45.83125 45.92875 46.08313
35.0525 36.54125 38.09813 39.0625 39.57188 39.63562 39.06688 38.7475 38.9675 39.125 39.05062 39.17062 39.79562 40.99313 42.6275 43.8875 44.52063 45.18438 45.87875 45.94 45.34375 43.51562 40 36.5175 33.69188 31.52438 30.70812 30.2825 29.00813 26.5775 23.18375 20.14313 18.3725 16.9675 15.37687 13.92062 13.12125 12.93062 12.71875 12.73063 12.99375 13.25437 13.635 14.04625 14.525 15.2125 15.86063 16.40187 17.0675 17.755 18.40625 18.94188 19.2375 19.56125 19.98438 20.67188 21.43312 21.605 21.70125 21.97375 22.19375 22.69312 23.5075 24.49063 25.66125 27.03125 28.64938 30.53812 32.85188 35.52375 37.92375 39.70063 40.61937 40.98625 41.425 41.62875 40.98312 39.7375 38.73 38.58313 39.04125 39.80313 41.75813 44.27312 46.10625 47.53625 48.12625 47.96375
34.4375 35.74187 37.12437 38.57438 39.66312 39.45 38.815 38.8825 39.09562 39.29375 39.47688 39.9225 40.93875 42.36562 43.9675 45.0125 45.18125 45.1925 45.2725 45.0675 44.51375 42.60688 38.96062 35.5325 32.99125 30.99 29.84375 28.825 27.08 24.655 21.94625 19.62687 18.06437 16.9375 15.8625 14.57938 13.68375 13.43813 13.13125 12.98687 13.03813 13.15375 13.4875 13.9125 14.415 15.05937 15.93312 16.68875 17.1625 17.7375 18.51063 19.17625 19.4925 19.77813 20.44312 21.345 21.85375 21.79313 21.86563 22.0875 22.2475 22.74688 23.63688 24.75687 26.085 27.59188 29.41 31.55313 33.70375 35.98188 38.52375 40.64812 41.64437 41.92937 42.23687 42.2825 41.67562 40.88063 40.375 40.28375 40.0425 39.83 41.32125 43.88125 46.02813 48.04438 49.45625 49.79
33.82563 35.00125 36.33125 37.93813 38.92937 38.41625 38.46312 39.525 39.90875 40.00875 40.31062 40.9625 42.04875 43.2775 44.35188 44.83875 44.6575 44.28875 44.15313 44.16375 43.755 41.815 38.26 34.87875 32.48188 30.60375 28.95312 27.25063 25.46437 23.65375 21.81688 19.99625 18.25562 16.75688 15.54813 14.48938 13.91313 13.69938 13.28 13.035 13.0175 13.09813 13.46 14.10063 14.69438 15.02312 15.78687 16.66688 16.96 17.49813 18.52938 19.36813 19.805 20.31437 21.36062 22.16562 22.02563 21.7625 21.9025 22.03687 22.16875 22.72 23.71125 24.92687 26.32125 27.86438 29.7375 32.08 34.41375 36.54875 38.705 40.51375 41.61562 42.26375 42.63688 42.45375 41.83937 41.70937 42.20375 42.32812 41.57 40.8675 41.69062 43.79438 45.92313 48.00312 49.8975 51.12
33.14437 34.21437 35.3325 36.45562 36.6425 36.4275 37.80188 39.8475 40.73563 41.00813 41.57812 42.54063 43.32 43.75063 44.08313 44.08437 43.63313 43.08812 43.15937 43.58313 43.07625 41.11813 38.05188 35.04187 32.82063 30.99813 29.16875 27.29188 25.59937 24.13938 22.6525 20.895 18.90375 16.98812 15.46 14.46625 14.06 13.86625 13.50187 13.225 13.12062 13.105 13.30688 14.08937 14.97625 15.11438 15.64563 16.47313 16.53 17.1275 18.42312 19.4325 20.16313 20.87875 21.84375 22.46187 22.2475 22.00875 22.0075 21.8725 21.92125 22.54562 23.625 24.90125 26.32063 27.86625 29.70062 32.09125 34.66125 36.81438 38.58063 40.11312 41.36625 42.3325 42.81438 42.64188 42.42625 43.085 44.14312 44.1825 43.36 42.78563 42.80688 43.83937 45.70125 47.70813 49.66312 51.52063
32.57125 33.66438 34.2325 34.405 34.12437 34.80812 37.065 39.32875 40.79938 41.61375 42.5675 43.8875 44.18187 43.48063 43.03687 42.68 42.00875 41.48563 41.91438 42.75938 42.45 40.73812 38.07625 35.48875 33.58437 31.805 29.98063 28.30125 26.80375 25.34937 23.77375 21.94812 19.89 17.90375 16.34438 15.23812 14.50813 14.00625 13.45063 13 12.82187 12.88188 12.98188 13.68625 14.89875 15.1 15.41375 16.235 16.38375 17.03312 18.17438 19.03437 19.94563 20.79437 21.565 22.21625 22.36812 22.27125 22.10812 21.72562 21.65937 22.25438 23.29313 24.60188 26.13125 27.76813 29.50187 31.71375 34.28812 36.59 38.385 39.83 41.0025 41.7725 42.13688 42.27937 42.79125 44.155 45.38562 45.50562 45.20438 44.88313 44.08937 43.84687 45.08313 46.93562 48.68 50.54813
32.745 33.95875 33.88562 33.53687 33.76937 34.85688 36.4875 38.26125 40.00625 41.245 42.6425 44.15437 43.90625 42.44125 41.52562 41.03125 40.51062 40.32625 40.8775 41.71 41.83812 40.78563 38.66813 36.40562 34.50625 32.56 30.67 29.14625 27.84562 26.3725 24.64062 22.76937 20.81437 18.97875 17.53687 16.34312 15.32375 14.47313 13.47563 12.73438 12.55625 12.74375 12.90375 13.48563 14.64625 15.15375 15.75813 16.74937 17.26937 17.97313 18.74937 19.155 19.79375 20.66187 21.37125 21.97313 22.13 21.96562 21.83375 21.58625 21.55062 22 22.90125 24.26 26.01813 27.885 29.57625 31.45 33.83 36.22688 38.1125 39.49 40.31375 40.68188 41.06062 41.68438 42.6925 44.31812 45.73312 46.29438 46.59438 46.29625 45.0675 44.10625 44.5125 46.03812 47.6575 49.23
33.63313 34.83 34.37625 34.08562 34.945 36.00438 36.76688 37.99625 39.64125 41.04125 42.6525 43.87313 43.15937 41.59438 40.69875 40.31437 40.04562 39.91187 40.235 40.91438 41.31062 40.98312 39.84063 38.12938 36.05437 33.74562 31.55437 29.73438 28.28687 26.78938 24.975 23.04 21.2375 19.72313 18.49 17.33813 16.23063 15.185 14.07563 13.27812 13.08375 13.23625 13.43563 13.98125 14.86063 15.80188 17.255 18.5625 19.07812 19.48688 20.02188 20.24438 20.66187 21.53375 22.10188 22.33875 22.21688 21.97313 21.915 21.835 21.82875 22.22875 23.27437 24.88437 26.785 28.67688 30.41875 32.07875 34.2325 36.55312 38.16187 39.12062 39.35812 39.5775 40.43438 41.54562 42.77312 44.49125 46.1925 47.05938 47.24 46.52187 45.40813 44.64625 44.54625 45.49125 46.88813 48.325
33.77687 34.75938 34.67937 34.7025 35.49937 36.50813 37.37375 38.5025 39.88625 41.20563 42.45625 43.04313 42.32125 41.1375 40.47875 40.28687 40.10687 39.7725 39.87188 40.57937 41.2 41.46188 41.22438 40.10375 37.95562 35.37687 32.93375 30.52 28.39625 26.6025 24.73375 22.87313 21.32438 20.13187 19.09375 18.02813 16.85125 15.56812 14.52063 14.0225 13.92813 13.9675 14.09813 14.6425 15.46688 16.45437 17.9175 19.27375 19.84125 20.09312 20.64812 21.085 21.65438 22.67562 23.07937 22.79375 22.55625 22.57125 22.68 22.68937 22.6425 23.14375 24.5875 26.41625 28.24438 30.02687 31.74187 33.37 35.365 37.25938 38.2325 38.63187 38.47187 38.73125 40.03437 41.52 42.86813 44.65125 46.50438 47.1075 46.58 45.58562 44.93687 44.86125 45.00312 45.58062 46.52125 47.75
33.81 34.57812 35.05437 35.41187 35.95125 36.78437 37.80375 38.86937 39.94688 40.99187 41.88438 42.255 41.73563 40.80812 40.255 40.09563 39.86875 39.46875 39.565 40.545 41.59312 42.12437 42.24187 41.52938 39.47562 36.71 33.98812 31.14 28.43375 26.25312 24.31187 22.59312 21.26125 20.2175 19.26438 18.24688 17.02375 15.58 14.52563 14.39188 14.68125 14.6825 14.54313 15.0025 15.83438 16.56187 17.5475 18.72375 19.65937 20.30875 20.94563 21.535 22.13562 22.93188 23.16562 22.80375 22.79875 23.18125 23.56875 23.8 23.8325 24.32562 25.73688 27.37875 29.08063 31.09813 32.9575 34.49 36.07625 37.18687 37.61125 37.86188 37.82 38.1875 39.47625 41.04063 42.525 44.44563 46.42313 47.0425 46.61375 46.08875 45.83688 45.7325 45.685 46.06625 46.68063 47.51062
34.445 35.23812 35.86875 36.18625 36.535 37.32063 38.26125 39.075 39.8175 40.53125 41.265 41.75563 41.425 40.58437 39.985 39.68188 39.35688 38.97375 39.17875 40.58 42.05875 42.47813 42.50312 41.98563 40.02562 37.01125 33.91813 31.185 28.6425 26.20813 24.17625 22.60563 21.29188 20.13125 19.04875 17.98063 16.81875 15.48938 14.4 14.33813 15.07438 15.2425 14.865 15.20563 15.85437 16.34625 17.38625 18.69563 19.79187 20.49813 21.0125 21.66875 22.26687 22.805 23.01688 22.93875 23.12563 23.59125 24.15125 24.65 24.94188 25.36125 26.35875 27.725 29.3025 31.44125 33.63375 35.12 36.16187 36.73812 36.85938 36.96875 37.30625 38.14875 39.4575 40.90688 42.44625 44.32188 46.10875 47.1925 47.8175 48.30812 48.68875 48.31813 47.38875 47.11125 47.25875 47.59813
35.42125 36.22125 36.90562 36.89563 36.84312 37.55437 38.50312 39.14563 39.6275 40.09125 40.5875 40.98625 40.89437 40.34687 39.77 39.3425 38.9425 38.53437 38.62125 39.86875 41.42875 42.07125 42.2025 41.65437 39.5875 36.40437 33.30437 31.08687 28.91125 26.33187 24.48063 23.20563 21.76562 20.29062 18.91937 17.70437 16.62437 15.56563 14.61875 14.42062 15.00437 15.21625 15.0325 15.42813 15.91687 16.29062 17.3825 18.70875 19.50937 19.98125 20.52625 21.08562 21.84312 22.7375 23.02938 23.0825 23.3475 23.75 24.34312 25.03438 25.6525 26.23313 27.11813 28.36375 29.69437 31.37875 33.36937 34.8475 35.70375 36.16687 36.23063 36.27312 36.97625 38.34563 39.81875 41.125 42.62125 44.29125 45.56 46.79813 48.16563 49.32625 50.44875 50.84813 50.03875 48.92313 48.0825 47.98188
37.37938 37.60625 38.15875 38.01562 37.56688 37.755 38.40688 38.9025 39.3075 39.75625 40.05812 40.1175 40.00938 39.69312 39.32312 39.0775 38.7475 38.28312 38.07438 38.66187 39.93187 41.09063 41.6 40.88688 38.56688 35.32812 32.3975 30.45375 28.91 27.41 26.28625 24.79062 22.64437 20.685 19.23 18.03563 16.88313 15.95312 15.34188 15.04187 15.00625 15.04437 15.28187 15.78125 16.1775 16.52062 17.34875 18.29062 18.69625 19.13688 19.83438 20.23938 21.06688 22.19438 22.58438 22.94437 23.48187 23.90687 24.47 25.21125 26.05313 26.925 27.96062 29.1275 30.20813 31.30625 32.54125 33.65125 34.44625 34.96625 35.30375 35.775 36.8375 38.39938 39.87188 40.97875 42.4275 44.10375 45.10062 46.19062 47.685 49.06187 50.58437 51.875 51.83625 50.27063 48.59438 48.44188
39.9325 39.315 39.00813 38.515 38.13688 37.97 38.015 38.19188 38.485 39.02438 39.36375 39.28188 39.16375 38.97625 38.79375 38.7575 38.5325 38.0775 37.6825 37.75625 38.65625 39.84937 40.41625 39.71687 37.35313 34.1475 31.46437 29.86687 29.6025 29.90313 29.03563 26.52812 23.50187 21.18625 19.92312 18.91 17.48 16.40812 16.07063 15.8825 15.63062 15.59062 15.9275 16.245 16.45812 16.84625 17.49625 18.215 18.63563 19.10312 19.87812 20.32 20.70625 21.36438 21.98375 22.85813 23.6875 24.18687 24.68937 25.36438 26.255 27.28812 28.41125 29.49813 30.45938 31.29875 32.03875 32.74813 33.45625 34.13125 34.84 35.7875 37.13438 38.71563 40.04375 40.9075 42.19188 43.76 44.515 45.28938 46.67062 48.25312 49.87125 51.12375 51.32125 49.90875 48.20562 48.2625
41.41 40.41188 39.30938 38.22688 37.88813 37.65375 37.37625 37.38 37.615 38.21812 38.76625 38.98438 38.99 38.64563 38.335 38.29375 38.09125 37.545 36.86063 36.6975 37.48 38.4325 38.83437 38.3075 36.03188 32.98125 31.18438 30.79313 31.42125 31.85563 30.25625 27.19 24.23438 22.04313 20.7475 19.56437 17.87938 16.66625 16.47812 16.75125 17.0825 17.24875 17.17937 16.88188 16.82312 17.38688 18.0675 18.64187 19.21625 19.8875 20.735 21.16438 21.17062 21.38 21.97 22.88688 23.7025 24.22437 24.68813 25.285 26.11188 27.14625 28.27563 29.32562 30.28625 31.16187 31.86813 32.51562 33.25438 34.07312 35.05625 36.39 38.0525 39.70813 40.90625 41.53625 42.325 43.33125 43.93312 44.6875 45.90437 47.19688 48.25687 49.0975 49.43625 48.38875 46.90313 47.08875
41.37062 40.23063 39.37375 38.33187 37.58313 37.0125 36.69125 36.84063 37.35125 38.06437 38.68813 39.07375 38.9775 38.28688 37.76875 37.69812 37.355 36.4425 35.55563 35.52687 36.29562 37.10188 37.46875 36.76188 34.4075 32.16375 32.0275 32.93 33.39938 32.75938 30.63125 27.90812 25.52062 23.53125 21.81437 20.05563 18.2 16.9875 16.91562 17.87938 19.365 20.09375 19.36625 17.975 17.37 17.97313 18.66187 19.03938 19.63 20.50063 21.27437 21.74687 22.04937 22.19188 22.39 22.8425 23.35062 23.81625 24.29313 24.97625 25.96 27.04688 28.11625 29.11563 30.00625 30.84063 31.66625 32.47625 33.30188 34.30437 35.575 37.15125 39.05563 40.81313 41.95938 42.31813 42.21875 42.48312 43.34875 44.6675 45.9575 46.625 46.73063 47.10625 47.51188 46.57688 45.22187 45.59063
40.99875 39.33937 38.83 38.03875 36.77375 35.85625 35.6725 36.2 37.02937 37.84375 38.54375 38.965 38.86312 38.24375 37.62938 37.25813 36.61375 35.585 34.9725 35.0975 35.505 35.94938 36.16063 35.33125 33.55875 32.8925 34.025 35.10062 34.99187 33.69062 31.5975 29.485 27.50625 25.295 22.86375 20.6225 18.78375 17.66125 17.80375 19.38062 21.75562 22.92813 21.77813 19.49438 18.05313 18.28437 18.90313 19.26 19.87625 20.67875 21.45125 22.10062 22.50937 22.66 22.66625 22.835 23.32125 23.88938 24.26375 24.75875 25.74937 26.83562 27.70625 28.64125 29.58375 30.47625 31.65 32.78938 33.74062 34.89625 36.18063 37.57 39.3625 40.99125 41.85188 41.73625 41.08625 41.33187 42.79187 44.82188 46.355 46.41187 45.58688 45.30437 45.42375 44.59438 43.53437 44.07312
40.64688 38.52063 37.81937 37.03437 35.48563 34.25 34.21812 35.35062 36.47063 37.34625 38.23812 38.79688 38.80375 38.33 37.63812 36.97437 36.29125 35.61375 35.26562 35.21062 35.08625 35 35.09813 34.8 34.27813 34.67937 35.8225 36.4925 36.13438 34.7775 33.01937 31.55125 29.92438 27.26063 23.865 21.18375 19.47875 18.34937 18.67937 20.59312 22.905 23.9175 22.82812 20.43188 18.41438 18.12563 18.67438 19.1825 19.84813 20.57187 21.375 21.89375 22.01312 22.29437 22.5475 22.81375 23.50063 24.22187 24.45312 24.49625 25 25.78062 26.4875 27.54812 28.85 30.21625 31.85188 33.085 33.95 34.89437 35.84625 37.1125 38.80062 39.98812 40.19375 39.75063 39.43125 40.27813 42.27625 44.78938 46.36375 45.78812 44.04187 42.93562 42.81812 42.56125 42.04562 42.46875
40.0625 37.88125 36.75375 35.845 34.60125 33.45 33.33625 34.71062 36.0025 36.86625 37.8225 38.4725 38.5675 38.1375 37.44875 36.79375 36.23812 35.82125 35.60875 35.54 35.24562 34.90187 35.01688 35.1475 35.27937 35.8925 36.72 37.1675 36.82187 35.7225 34.49625 33.805 32.90875 30.045 25.55125 22.15063 20.3875 19.1025 19.26188 21.02875 22.6175 23.07438 21.99125 19.69812 17.94188 17.72625 18.34063 19.05875 19.7225 20.40937 21.03062 21.28312 21.40438 21.79438 22.22875 22.59125 23.12875 23.84312 24.28125 24.28563 24.45125 24.92562 25.58875 26.66687 28.07812 29.82875 31.4775 32.37188 32.97187 33.72688 34.60375 35.86875 37.47 38.1525 37.82375 37.63812 37.96062 39.17812 41.49625 44.08063 45.35188 44.38813 42.08063 40.40375 40.17 40.36312 40.35125 40.85875
39.15187 37.05375 35.68312 34.60625 33.91375 33.44313 33.35188 34.32188 35.38125 36.10563 36.93312 37.62188 37.95438 37.7925 37.26875 36.71188 36.23563 35.96062 36.00625 36.15937 36.1625 36.03938 35.9225 35.89563 36.14875 36.755 37.38 37.53312 37.01375 35.86 34.54875 34.27875 34.395 32.00625 27.1975 23.24125 21.13625 19.8775 19.84813 20.97187 21.7375 21.56063 20.27625 18.40063 17.49125 17.78 18.515 19.23688 19.79625 20.39875 20.90688 21.22688 21.60812 21.93312 22.21875 22.59562 23.02125 23.795 24.50813 24.49625 24.55625 25.06125 25.635 26.25375 27.32812 29.04812 30.25312 30.75312 31.42 32.29 33.0575 33.87938 35.00938 35.58062 35.50625 35.89375 37.06187 38.98563 41.42875 43.18938 43.37688 42.07687 39.89313 38.36125 38.14437 38.27375 38.65187 39.965
37.70125 35.87188 34.67375 33.7675 33.38937 33.30062 33.30688 33.75875 34.41563 35.00813 35.64688 36.2925 36.88375 37.16 36.98875 36.61312 36.25375 36.16562 36.43562 36.67688 36.9325 37.07 36.69625 36.5225 36.945 37.53875 37.92562 37.74562 36.96437 35.525 33.57125 32.52687 32.54937 31.18125 27.65938 23.96938 21.42375 20.14937 20.09687 20.47875 20.4975 19.96563 18.95437 17.99562 17.69625 18.15313 18.95125 19.64187 20.09562 20.51312 21.02875 21.6525 22.23937 22.51062 22.74625 23.095 23.41063 24.15125 24.91063 25.00813 25.3 25.97187 26.39313 26.45437 26.91813 28.1125 28.6825 28.87938 29.79187 30.68375 31.1425 31.63187 32.265 33.05375 33.91375 34.98 36.93813 39.67625 41.83625 42.05188 40.68438 39.16438 37.72688 36.78437 36.83062 37.0325 37.865 39.96125
36.33313 34.85313 33.8175 33.08313 32.7725 32.66375 32.61813 32.78125 33.19062 33.71812 34.25438 34.82875 35.55563 36.2225 36.50562 36.43187 36.24 36.29875 36.64938 36.65375 36.5475 36.6575 36.42375 36.39188 36.83 37.34625 37.86125 37.81875 37.09875 35.93125 34.08313 32.03 30.72187 29.49688 27.17 24.27813 21.74312 20.125 19.6975 19.55812 19.12125 18.54188 17.99 17.75688 17.9575 18.59875 19.44438 20.16063 20.59312 20.82875 21.22313 22.00562 22.77188 23.14437 23.51188 23.84063 24.00625 24.47187 25.03125 25.52312 26.18063 26.65812 26.90438 26.85062 26.82 27.3325 27.54938 27.73063 28.65 29.34875 29.73562 30.46938 31.15875 32.13 33.67812 35.33688 37.255 39.52063 40.83437 39.88813 37.78 36.54125 36.04125 35.77187 35.97187 36.0975 36.9275 39.085
35.41938 34.05188 32.90375 32.28875 32.0725 31.92312 31.83125 31.86312 32.09375 32.41563 32.81 33.41875 34.20125 35.02063 35.69375 36.0575 36.20375 36.44 36.73125 36.17437 35.14188 34.86375 34.98375 35.37688 35.86562 36.36625 37.22625 37.62688 37.305 36.73312 35.545 33.4225 31.09063 28.79938 26.24937 23.93063 21.79437 19.785 18.81125 18.58875 18.1675 17.58813 17.21812 17.27813 17.94687 19.01813 19.91187 20.4275 20.73562 21.02312 21.47688 22.2975 23.05812 23.355 23.76312 24.25813 24.49375 24.66875 24.88625 25.47375 26.15063 26.28188 26.48625 26.69938 26.46375 26.56063 26.86438 27.29688 28.17438 28.65125 29.0375 30.2125 31.48312 32.735 34.25938 35.70125 36.96 38.0875 38.41938 37.17937 35.195 34.18188 34.2775 34.81187 35.1875 34.8725 35.235 37.21312
34.89625 33.44938 31.94375 31.44563 31.495 31.39562 31.35062 31.35625 31.45188 31.5675 31.82563 32.43188 33.11875 33.865 34.7625 35.55625 36.1375 36.62375 36.795 35.80188 34.08875 33.15688 33.20937 33.9025 34.71875 35.5075 36.445 37.01125 37.04375 36.735 35.77312 33.88 31.41187 28.4 25.15875 22.79563 20.985 19.04437 17.91125 17.82 17.63187 17.13062 16.86813 16.97563 17.66 18.86 19.79313 20.1675 20.34562 20.78938 21.49125 22.22812 22.72563 22.83125 23.30062 24.03312 24.30562 24.455 24.76813 25.22688 25.35 24.86687 24.84312 25.27312 25.24438 25.3025 25.6875 26.21688 27.15063 27.83063 28.32 29.55375 31.1 32.5 33.58937 34.3375 35.20875 35.93813 35.8025 34.6225 33.09625 32.23063 32.315 33.22937 33.95438 33.63187 33.69812 35.38562
34.93063 33.68 32.035 31.16375 31.00937 30.91125 30.92312 30.84 30.8425 31.2775 31.79938 32.19 32.57188 33.1875 34.16375 35.18687 36.04375 36.785 36.93188 35.98563 34.47063 33.0375 32.22187 32.44375 33.34813 34.44625 35.4225 36.01562 36.1275 35.45375 34.08187 32.36625 30.31313 27.70188 24.51188 21.77625 19.97563 18.50813 17.54125 17.32937 17.21 16.76625 16.53938 16.79437 17.33625 18.28 19.23187 19.74 20.0325 20.56938 21.27625 21.66937 21.93188 22.355 22.99813 23.60062 23.87687 24.22 24.71688 24.68125 23.69125 22.55563 22.41937 23.0525 23.51875 23.84 24.32875 24.875 25.735 26.64375 27.25 28.12437 29.31625 30.48375 31.34188 31.98562 32.87062 33.54063 33.27562 32.25625 31.41937 30.96 30.67687 31.20687 32.05312 32.21563 32.47375 33.93625
35.4975 34.51375 33.04 31.62812 30.58687 30.07187 30.13062 30.15625 30.3075 31.26 32.13313 32.35375 32.50875 33.01875 33.98938 35.05625 35.98375 36.92437 37.22438 36.56438 35.655 33.99625 31.92063 31.1075 31.67937 33.02625 34.35 35.03437 34.97688 33.95813 32.28563 30.22437 28.13875 26.41813 24.17625 21.52188 19.55375 18.27375 17.39875 16.93875 16.61563 16.02125 15.84875 16.51125 17.27062 18.155 19.1275 19.78875 20.30375 20.73063 20.9825 20.95625 21.21188 21.96 22.26063 22.17 22.47688 23.11062 23.48812 23.04188 21.89062 21.17438 21.45563 22.13875 22.54625 22.85688 23.43375 24.08125 24.79938 25.4725 25.94375 26.56562 27.46437 28.38688 29.17625 29.89313 30.64875 31.0675 30.80375 30.2 29.89625 29.85687 29.69312 29.825 30.35563 30.70625 31.22938 32.50312
35.98812 35.1375 33.565 31.8625 30.27375 29.34625 29.31125 29.5575 30.15937 31.44437 32.43312 32.66625 32.73063 33.10125 33.99688 35.0425 35.96563 36.915 37.44313 37.18125 36.46062 34.71875 32.20687 30.66562 30.66375 31.9975 33.61625 34.3375 33.91813 32.86187 31.26312 28.48812 25.90875 24.58063 23.06437 20.95 19.10687 17.8075 16.88563 16.30875 15.89375 15.49438 15.65687 16.5725 17.72938 18.79375 19.5925 20.24 20.78812 20.74625 20.27938 19.91625 20.08875 20.67875 20.69188 20.23875 20.49375 21.27563 21.5475 21.43563 21.20812 21.11563 21.55 22.09063 22.25375 22.45375 22.99438 23.64625 24.30437 24.75063 24.94938 25.37188 26.17562 26.99313 27.66 28.19625 28.62938 28.81313 28.70062 28.53812 28.4675 28.71 29.04125 29.12812 29.31375 29.58625 29.9925 30.68
35.88062 34.93063 33.32375 31.5975 30.00937 29.24875 29.06125 29.02312 29.92438 31.60812 32.7725 33.21437 33.24125 33.33688 34.02063 34.95813 35.8575 36.78437 37.68687 37.8675 36.58062 34.63 32.91687 31.55938 30.7475 31.1375 32.66813 33.5575 32.76188 31.15375 29.17188 26.5325 24.20687 22.765 21.40562 19.87125 18.44563 17.22125 16.1825 15.51562 15.26125 15.4125 16.1025 17.23688 18.50937 19.45125 20.00312 20.47375 20.5875 19.96563 19.305 19.08625 19.12875 19.4075 19.61813 19.52188 19.77125 20.44062 20.56437 20.61563 20.98875 21.15187 21.48812 22.0125 22.23625 22.40875 22.725 23.2475 23.99875 24.4475 24.43625 24.57187 25.14125 25.8275 26.3725 26.70312 26.80062 26.765 26.89875 27.1775 27.31875 27.66063 28.2075 28.44563 28.555 28.79188 29.11312 29.42375
35.34875 33.64 32.21938 30.77813 29.2175 28.88062 29.05563 29.19625 30.41688 32.49187 34.20687 34.8925 34.40937 33.83937 34.08562 34.76812 35.62437 36.73312 38.075 38.31688 36.3225 34.2375 33.41312 32.66438 31.24187 30.12062 30.89062 32.07 31.39313 29.23188 26.73938 24.46688 22.60625 21.14875 19.93875 18.91 17.98688 16.9825 15.90312 15.16375 14.99187 15.31563 16.24375 17.56375 18.67625 19.38125 19.89625 20.16562 19.82 19.02813 18.62687 18.84438 19.07 18.995 19.10438 19.5875 20.18687 20.82312 20.80563 20.60375 21.215 21.81375 22.16875 22.57187 22.73 22.71062 22.71062 23.06875 23.78062 24.19938 24.21062 24.2475 24.55125 25.04563 25.50312 25.73938 25.64437 25.48812 25.81313 26.39188 26.71688 27.13062 27.64562 27.86938 27.95687 28.135 28.49125 28.86375
34.4175 32.3275 30.94125 29.81688 28.56187 28.42313 29.10625 29.99937 31.50687 33.85313 36.37 37.24562 36.00063 34.67 34.30625 34.5725 35.4125 36.56062 37.66937 37.54688 35.63688 34.06125 33.74937 33.3375 31.74375 29.4225 28.91937 30.25 30.06875 27.75375 24.90938 22.45813 20.75438 19.555 18.63 18.02938 17.63062 17.08063 16.27188 15.63062 15.49563 15.75313 16.35375 17.20375 17.9875 18.63062 19.15625 19.315 18.9675 18.47875 18.39 18.90937 19.32875 19.22625 19.63563 20.65313 21.39812 21.83813 21.79625 21.6975 22.3125 23.01687 23.44687 23.74312 23.73 23.51813 23.45437 23.56313 23.605 23.7675 24.1625 24.45687 24.66562 25.05 25.59 25.9 25.81688 25.76188 26.02063 26.39437 26.74063 27.26813 27.69625 27.795 27.86188 27.88062 28.12437 28.5675
33.2475 31.55375 30.23562 29.27437 28.53625 28.42438 29.09 30.16187 31.60188 33.87563 36.54562 37.90688 37.17313 35.84063 35.09063 34.99313 35.56813 36.14938 36.10312 35.20312 33.85875 33.4 33.8325 33.5225 31.65125 28.69375 27.38563 28.61563 28.62375 26.2475 23.19687 20.54187 18.92375 18.03437 17.48688 17.28188 17.30125 17.235 16.8775 16.45625 16.28625 16.3125 16.4025 16.66937 17.10437 17.55313 17.99813 18.24313 18.15688 18.06688 18.33813 19.15937 19.9425 20.455 21.52625 22.70938 23.16625 23.16312 23.13938 23.36938 23.7825 24.25813 24.8125 25.19875 25.11188 24.77063 24.56125 24.34 23.96437 23.975 24.54875 25.045 25.2825 25.62812 26.20687 26.5325 26.4675 26.52563 26.68125 26.84562 27.25063 27.85188 28.29125 28.4775 28.49125 28.23562 28.22812 28.57063
32.10437 30.63688 29.47375 28.74187 28.42875 28.41688 28.72688 29.46938 30.85 32.84125 35.08875 36.94938 37.50312 37.0925 36.73312 36.4475 36.20063 35.64062 34.24812 32.61187 31.48937 31.48187 32.38875 32.29937 30.44938 27.59312 26.02687 26.80625 26.66625 24.41937 21.67937 19.23313 17.60438 16.89 16.73313 16.81437 17.0125 17.19062 17.11938 16.8175 16.49312 16.20812 16.05313 16.36563 16.96625 17.31437 17.52062 17.54812 17.42875 17.62062 18.20687 19.32 20.7925 22.03625 23.0625 23.91937 24.1975 24.07313 24.1825 24.525 24.83125 25.2875 26.00312 26.59937 26.67 26.3675 25.855 25.33 25.30313 25.42625 25.48875 25.835 26.21 26.54 27.00875 27.27438 27.235 27.30375 27.48688 27.7625 28.265 28.80062 29.17937 29.39 29.335 28.985 28.75687 28.84062
31.36312 29.89812 28.77813 28.23313 28.19125 28.3 28.30375 28.66625 29.98125 31.81313 33.78563 35.69062 36.91 37.61375 38.06313 37.72625 36.81937 35.48812 33.64875 31.945 30.3775 29.42125 29.66312 29.62188 28.35875 26.17 24.68625 24.95687 24.50875 22.33438 19.98625 18.13313 16.83562 16.24813 16.27312 16.5225 16.705 16.78437 16.67375 16.33562 16.06187 15.85375 15.66625 16.15063 17.16375 17.70812 17.68563 17.22812 16.86687 17.20687 18.09375 19.475 21.38437 22.96938 23.42312 23.50875 23.68875 23.89375 24.30125 24.715 25.09312 25.70437 26.66 27.6325 28.13812 28.18063 27.84875 27.28125 27.37812 27.56125 27.0075 26.97688 27.54313 27.95188 28.24688 28.28812 28.205 28.355 28.72062 29.25687 29.76875 30.05938 30.2475 30.31875 30.18 29.95437 29.82187 29.8025
31.23187 29.7525 28.56688 28.03625 28.09438 28.25 28.23187 28.485 29.47313 31.015 32.85 34.55437 35.90813 37.17625 38.03875 37.9 37.09312 35.985 34.70625 33.015 30.59562 28.6475 27.71125 26.935 25.965 24.52813 23.46375 23.2875 22.45625 20.55812 18.64812 17.35312 16.3975 15.81875 16.005 16.35688 16.30125 16.06688 15.75125 15.3675 15.34125 15.50125 15.41687 15.73312 16.56562 17.05625 17.05062 16.78188 16.645 16.99875 17.97 19.40063 21.24187 22.91187 23.10812 22.59875 22.70625 23.29 23.96625 24.53125 25.07812 25.87625 27.07 28.38188 29.34063 29.86563 30.17188 30.16688 30.3775 30.57313 29.70312 28.915 29.0175 29.42687 29.7325 29.45125 29.14437 29.515 30.2125 31.00562 31.52625 31.61875 31.66687 31.59937 31.34937 31.27312 31.45938 31.58937
31.39625 29.91687 28.68062 28.15313 28.28 28.48375 28.52 28.80125 29.58312 30.875 32.5725 34.13562 35.57812 36.92 37.5525 37.45312 37.04 36.52562 35.74875 33.8875 31.12625 28.96188 27.60125 26.50125 25.26188 23.73438 22.66937 21.9725 20.93375 19.75125 18.445 17.08937 16.03563 15.7775 16.28875 16.42562 15.96438 15.52125 15.11063 14.73125 14.77063 15.12562 15.3 15.53 16.01125 16.28687 16.325 16.40063 16.56812 16.94062 17.755 18.87563 20.29437 21.65875 21.94875 21.75438 22.19875 23.07125 23.8675 24.51812 25.2525 26.27125 27.61188 29.03875 30.2275 31.12375 31.95938 32.76125 33.51875 33.8 32.86687 31.42625 30.69687 30.88625 31.18937 30.71688 30.26375 30.75813 31.67625 32.60875 33.26437 33.47688 33.5275 33.38313 33.11125 33.17812 33.58562 33.82312
31.39125 30.22437 29.08813 28.56625 28.92875 29.3075 29.33063 29.5475 30.34875 31.6675 33.02063 34.06937 35.38625 36.60875 36.88375 36.78313 36.78437 36.7025 36.11063 34.46125 31.95813 29.62 28.64187 28.23375 26.22 23.53875 22.04188 21.16562 20.29437 19.58187 18.63062 16.96187 15.70687 15.925 16.49937 16.37812 15.93062 15.65063 15.39 14.97875 14.80813 15.0725 15.40812 15.6925 16.04062 16.24937 16.28188 16.34125 16.535 17.05313 17.96 18.92875 19.85 20.55187 20.84312 21.2875 22.14062 23.08875 23.88625 24.60062 25.5325 26.77312 28.21187 29.6275 30.99187 32.35812 33.56813 34.62688 35.65375 36.18125 35.53625 34.10688 33.04438 32.745 32.46375 31.74937 31.20062 31.42875 32.30062 33.4525 34.675 35.58062 35.85125 35.60625 35.33688 35.47937 35.8575 35.93937
31.71937 31.445 30.80812 30.06313 30.37375 30.90125 30.97313 31.11062 31.64688 32.5075 33.15437 33.46563 34.22 35.10375 35.52 35.88688 36.31688 36.45813 35.95813 34.71375 32.6325 30.235 29.4 28.9525 26.00438 22.66438 21.14625 20.41187 19.73688 19.09875 18.44 17.14562 15.94 15.99187 16.3275 16.27938 16.20312 16.4325 16.5425 15.90812 15.26813 15.25937 15.46125 15.665 16.02312 16.29875 16.3675 16.39688 16.585 17.47 19.11687 20.54062 21.29062 21.61563 21.71812 21.98875 22.5025 23.13688 23.82125 24.58312 25.62687 26.99063 28.5175 30.0725 31.845 33.78188 35.27813 36.13688 37.00563 37.9525 37.89875 36.70375 35.375 34.33062 33.30563 32.36 31.71938 31.69375 32.49375 33.74375 35.31562 36.87812 37.65125 37.635 37.4625 37.48812 37.57188 37.375
32.80875 33.015 33.04125 32.27687 32.34187 33.02687 33.45875 33.73687 33.825 33.66875 33.185 32.94688 33.26313 33.66 34.12125 34.77875 35.41188 35.62062 35.16875 34.275 32.87375 30.95062 29.60875 28.06875 24.85063 21.90625 20.5075 19.71188 18.96625 18.36812 17.99375 17.29062 16.52813 16.385 16.45625 16.36875 16.38125 16.89188 17.19563 16.38938 15.47 15.23312 15.22375 15.47125 16.02062 16.36188 16.43188 16.455 16.62938 17.85875 20.42125 22.57 23.39 23.615 23.52437 23.30625 23.2625 23.48375 23.93188 24.56688 25.5025 26.79188 28.29375 29.95938 31.86437 33.78375 35.43875 36.55563 37.44812 38.67437 39.395 38.89125 37.46625 35.60062 33.99375 32.98375 32.485 32.63313 33.54875 34.6175 35.53625 36.72625 37.94563 38.8675 39.41063 39.28 38.72813 38.225
33.72187 33.59125 33.78188 33.58437 34.00187 35.02562 35.92313 36.45063 36.57312 36.41 35.4075 34.37313 33.84625 33.4025 33.47187 33.98125 34.48438 34.67937 34.365 33.81875 33.02625 31.54938 29.485 26.94438 24.1225 21.81125 20.29563 19.28813 18.465 17.99 17.73187 17.12625 16.6325 16.515 16.375 16.13625 15.88063 15.94375 16.13875 15.63688 15.08937 15.12813 15.34375 15.83438 16.25875 16.37 16.46 16.49312 16.715 18.1025 20.81812 23.09562 24.015 24.42063 24.54563 24.35312 24.18125 24.20312 24.4075 24.77438 25.4325 26.46313 27.7325 29.09438 30.49063 31.93 33.64812 35.36125 36.655 37.9875 39.42313 40.025 38.88313 36.765 35.23875 34.35938 33.89812 34.14812 35.1125 36.02687 36.30812 36.71312 37.78312 39.44812 41.04937 41.1325 39.92625 39.06937
34.49625 34.41063 34.52312 34.7425 35.45312 36.39437 37.125 37.71 38.26375 38.80812 38.38438 37.16438 35.78188 34.49688 34.16625 34.3625 34.49688 34.56125 34.36063 34.02312 33.46062 32.085 29.64187 26.75438 24.21313 22.13 20.38437 19.065 18.14562 17.725 17.52938 17.06 16.65688 16.21875 15.6575 15.44688 15.06938 14.64125 14.72375 14.64188 14.66125 15.18812 15.96625 16.63375 16.4725 16.21313 16.49187 16.74438 17.26438 18.80188 20.95813 22.71313 23.83438 24.62125 25.01 24.9975 24.92625 24.97125 25.11938 25.3725 25.84375 26.59813 27.52062 28.43062 29.33063 30.44312 31.95437 33.64812 35.17125 36.55125 38.0275 38.99688 38.47063 37.36375 36.75438 36.16312 35.75 36.01937 36.7825 37.55313 37.83125 37.83125 38.46062 40.27312 42.22937 42.465 41.18563 40.2925
34.95687 35.33125 35.93687 36.47125 37.11937 37.59438 37.8075 38.3075 38.91813 39.28875 39.07 38.42 37.52 36.44875 35.92125 35.71437 35.50312 35.41 35.265 35.015 34.4875 33.14062 30.74187 28.08875 25.6875 23.26125 21.045 19.345 18.43625 18.25937 17.97563 17.51188 17.11188 15.98187 14.81812 14.86187 14.83313 14.425 14.3175 14.37187 14.6125 15.02688 16.21625 17.16187 16.53813 16.11437 16.89437 17.73625 18.36625 19.56812 21.14688 22.52125 23.74625 24.67188 25.09687 25.2225 25.36125 25.61 25.94625 26.365 26.89812 27.545 28.23125 28.87313 29.56 30.48563 31.62875 32.825 34.06812 35.29813 36.495 37.45562 37.77813 38.02875 38.17437 37.76 37.7975 38.42625 39.00312 39.72625 40.18312 39.80563 39.955 41.81125 43.56187 43.50188 42.60563 42.17875
35.08562 35.93312 37.22812 38.18187 38.86813 39.17812 39.14938 39.30563 39.50438 39.39125 38.97562 38.59312 38.29625 37.81062 37.32438 36.975 36.75938 36.70063 36.64812 36.42688 35.8375 34.54 32.37938 30.12625 28.06313 25.74688 23.7225 21.70938 20.57125 20.67438 19.62687 18.38875 17.92625 16.65438 15.455 15.4225 15.27375 14.78312 14.49938 14.68062 14.95375 14.92875 16.1225 17.31875 16.69437 16.59375 18.23375 19.45312 19.32937 19.67687 20.92188 22.13938 23.23 24.09188 24.57562 24.88313 25.32562 25.95312 26.6525 27.37938 28.13125 28.8675 29.555 30.15875 30.77188 31.58813 32.51937 33.33062 34.13 35.07812 36.25375 37.4925 38.38875 39.26313 39.89 39.87188 40.44062 41.51375 41.97125 42.60875 43.20562 42.38875 41.72313 43.12375 44.795 44.96188 44.69875 44.9
35.66813 36.94313 38.3625 39.4475 40.20625 40.52312 40.355 40.0825 39.935 39.79 39.56562 39.31562 39.02125 38.63063 38.15125 37.87812 38.02625 38.11312 37.99125 37.81062 37.17812 35.90063 34.10188 32.11687 30.19938 28.60875 27.30125 24.7475 23.23938 23.95938 22.81812 21.03125 20.31 19.19875 18.07438 17.29187 16.27625 15.31938 15.0375 15.49 15.9975 15.90312 16.57063 17.43687 17.09438 17.66312 19.75438 20.57375 19.73 19.67438 20.71875 21.7075 22.64 23.5 23.89937 24.20062 24.965 26.12375 27.20312 28.04938 28.91562 29.8025 30.61813 31.30812 31.89437 32.65063 33.58625 34.35062 35.01062 36.03938 37.5875 39.23188 40.5025 41.36813 42.00438 42.50625 43.43875 44.73625 45.34312 45.71875 45.93125 44.73063 43.395 44.12188 45.94625 47.01813 47.47438 47.97875
35.7575 37.24813 38.71125 39.90625 40.71875 40.93375 40.58937 40.1575 40.00687 40.12812 40.30875 40.27312 39.96375 39.62125 39.25188 39.15375 39.52 39.58 39.44312 39.355 38.61813 37.32938 35.9075 34.16312 32.00063 30.29313 28.5725 25.375 23.87687 25.12375 25.09063 23.86813 22.77063 21.51313 20.44438 19.57812 18.3575 17.18625 16.79875 17.00375 17.41438 17.49562 17.745 18.16063 18.14938 18.905 20.39875 20.85437 20.34188 20.32562 21.13812 21.92937 22.74 23.56937 23.67625 23.77375 24.69875 26.1775 27.46688 28.29875 29.15937 30.115 30.97875 31.64625 32.09312 32.69688 33.64312 34.56313 35.41813 36.79562 38.77937 40.725 42.23438 43.05812 43.44125 44.11875 45.37375 47.00938 48.2525 48.76062 48.35437 46.52625 44.89312 45.5525 47.87938 49.88937 50.90813 51.51
34.82 36.21375 37.98687 39.52375 40.3475 40.3275 39.86875 39.71312 39.9475 40.42188 40.92062 41.01812 40.78312 40.68438 40.76437 40.92125 41.08625 41.21125 41.43625 41.28563 40.28062 38.92875 37.6875 36.14812 33.85812 31.52438 28.94687 25.63938 23.78375 23.79313 23.74375 23.34125 22.7325 21.93063 21.435 21.39875 21.16 20.52813 19.77188 19.01937 18.83063 19.05437 19.14375 19.08438 19.13375 19.7875 20.61875 20.88562 20.73937 20.86875 21.75438 22.59375 23.14187 23.65313 23.76813 24.02125 24.81688 26.025 27.3975 28.47625 29.2525 30.04 30.79187 31.25187 31.44938 31.77875 32.52375 33.44313 34.40813 35.765 37.5625 39.37 40.88813 41.96375 42.77187 43.95625 45.7275 47.76313 49.60437 50.85062 50.6525 48.67937 46.88813 47.27063 50.05188 53.14625 54.68312 55.18125
33.49 34.94 36.93687 38.58062 39.28563 39.16 38.90625 39.26875 39.92937 40.6275 41.25125 41.42313 41.36937 41.59937 42.1225 42.50813 42.66438 42.98812 43.26625 42.9225 41.85062 40.42562 39.07687 37.58 35.53188 33.065 30.0525 26.86875 24.89375 23.88688 23.03375 22.68563 22.57438 22.19062 21.81375 22.01813 22.59063 22.595 21.69938 20.48937 19.97062 20.1 19.85875 19.1975 18.99375 19.73 20.61125 20.83125 20.66625 20.77563 21.77188 22.85625 23.39187 23.76625 24.12 24.66063 25.28875 26.21625 27.73313 28.92438 29.25875 29.63062 30.15812 30.30812 30.25937 30.39875 30.88125 31.56812 32.3525 33.46 35.09 36.84625 38.25312 39.5225 41.05 43.095 45.46437 47.67313 49.88875 51.93438 52.48438 51.27125 49.43687 48.90875 51.51188 55.13438 56.61875 56.335
32.62062 34.59188 36.48812 37.49937 37.81875 38.07125 38.4925 39.14313 39.79938 40.58562 41.4925 41.835 41.93063 42.42313 43.20438 43.90437 44.30125 44.4075 44.25438 43.88125 43.045 41.62938 40.04375 38.50875 36.81125 34.52625 31.3025 28.09 26.505 25.63812 24.33687 23.59937 23.36312 22.83187 22.17438 22.05625 22.4925 22.54688 21.84813 20.93813 20.43188 20.21062 19.70062 19.12563 18.95 19.16875 20.08688 21.3025 21.52438 21.19062 21.75875 22.78 23.54125 24.10312 24.42375 24.84937 25.44062 26.34625 27.74375 28.60188 28.55563 28.64125 28.86938 28.80187 28.66438 28.80062 29.37812 30.05688 30.63062 31.49438 33.08125 34.81562 36.10812 37.66 39.95813 42.68187 45.445 47.92313 50.20625 52.14 52.99313 52.56 51.04875 50.24438 52.29438 55.11187 55.64312 54.5675
32.9 34.82938 36.26437 36.52312 36.69563 37.49187 38.37875 39.10188 39.635 40.435 41.63313 42.21563 42.44938 43.07563 43.96563 44.87375 45.4175 45.27375 44.76437 44.39688 43.7875 42.45937 40.75875 39.21125 37.71688 35.41375 32.11 29.17813 27.65375 26.56375 25.15937 24.27375 23.8925 23.31 22.63125 22.3875 22.53438 22.38688 21.76063 21.09625 20.67063 20.23 19.58937 19.42937 19.61375 19.19563 19.68312 21.39375 21.95 21.74312 22.11375 22.70938 23.34375 23.88062 24.04938 24.24187 24.77687 25.545 26.39562 26.92688 26.94438 26.9325 27.12313 27.40875 27.62437 27.93563 28.80437 29.74312 30.26937 30.78125 31.84 33.13375 34.3575 36.25875 39.10062 42.135 44.97688 47.57438 49.4425 50.48125 51.09187 51.24812 50.805 50.79937 52.38438 54.02312 53.78188 52.555
34.125 35.45875 36.15562 36.22438 36.73375 37.54 38.145 38.95312 39.67625 40.40125 41.38125 42.06937 42.55312 43.23812 44.08313 45.00375 45.78 45.74375 44.98188 44.46688 43.9325 42.73375 41.20312 39.79063 38.3425 35.78312 32.39625 29.81125 27.94875 26.535 25.46125 24.44062 23.94375 23.65625 23.16562 22.96563 23.01562 22.71 22.01188 21.39437 21.02625 20.44188 19.6575 19.68937 20.02938 19.62188 19.83875 20.85687 21.28938 21.57312 22.06313 22.365 22.71375 23.14313 23.2575 23.27625 23.75438 24.43375 24.8525 25.26875 25.42562 25.43312 26.14625 27.28437 28.37938 29.20125 29.75688 30.49813 31.35375 31.785 32.015 32.65937 33.68063 35.30875 37.75125 40.555 43.35938 45.77687 47.21312 47.76875 48.1825 48.67375 49.23438 50.27312 51.98812 53.15062 52.70562 51.51937
35.69875 36.68687 36.62437 36.76125 37.33875 37.82188 38.07812 38.87375 39.67875 40.19625 40.79625 41.4875 42.21875 42.9875 43.7075 44.4225 45.155 45.215 44.55875 44.09125 43.58375 42.58625 41.41 40.16563 38.5075 35.90062 32.98563 30.49125 28.0025 26.44687 25.74875 24.64 24.06125 24.08125 23.87875 23.76375 23.67125 23.16 22.32875 21.64812 21.17875 20.37875 19.55313 19.81437 20.24187 19.89 20.1425 20.9275 21.21688 21.44687 21.825 21.995 22.17438 22.575 22.77375 22.80812 23.23438 23.82312 24.14688 24.67875 25.22875 25.73313 26.94 28.45312 30.28875 31.69125 31.6075 31.69062 32.95125 34.0225 33.8875 33.66875 34.16438 35.10375 36.62625 38.81813 41.30563 43.35875 44.555 45.15375 45.70625 46.45187 47.62 49.47438 51.98438 53.71875 53.35938 51.81375
36.19687 37.72 37.3725 37.31937 37.665 38.05312 38.35563 38.92937 39.43375 39.64938 40.01437 40.74438 41.64313 42.48125 43.0775 43.40688 43.65375 43.735 43.65313 43.55625 43.1875 42.47438 41.56813 40.30375 38.27875 35.77125 33.52625 31.15812 28.54375 27.02563 26.43375 25.57 24.95375 24.81375 24.69437 24.61188 24.33063 23.5725 22.55 21.6825 20.9075 19.93625 19.07125 19.31812 20.12812 20.07313 20.43125 21.46437 21.69 21.67063 21.91063 22.05938 22.22375 22.56875 22.955 23.33875 23.8575 24.33 24.6425 25.30187 26.42312 27.64938 28.94188 30.2575 32.16438 33.90562 33.91563 33.53125 34.62938 36.4225 36.6375 35.7175 35.545 35.93 36.61063 37.92688 39.63937 41.16625 42.17812 42.87563 43.70437 44.88187 46.61125 49.05375 52.255 54.84875 55.0025 53.19062
35.56187 38.3475 38.345 37.64563 37.65688 38.005 38.36938 38.83063 39.10812 39.03625 39.15937 39.8725 40.82 41.53437 41.88062 42.10437 42.37188 42.61687 42.89938 43.07625 42.945 42.53938 41.73125 40.31875 38.17375 35.68125 33.385 31.11312 29.02687 27.725 26.99187 26.31375 25.345 24.17625 23.61563 23.9725 24.395 23.86813 22.68625 21.56375 20.38688 19.19062 18.39313 18.55938 19.37938 19.75125 20.3925 21.48063 21.78938 21.82 22.09562 22.33187 22.57937 23.03812 23.755 24.64937 25.705 26.43687 26.49937 26.82812 28.00813 29.5225 31.05938 32.51 34.1975 35.96188 36.60812 36.43312 37.32312 39.03313 39.18875 38.1475 37.86625 37.92937 37.77875 38.07687 38.96938 40.02 40.86125 41.57687 42.53437 43.9225 45.8725 48.49625 51.61125 54.29313 55.32687 54.4025
35.44062 38.47875 38.75063 37.65125 37.31625 37.555 37.87625 38.42313 38.70687 38.46437 38.36438 38.94625 39.71563 40.18125 40.42062 40.8725 41.61562 42.0975 42.39375 42.66625 42.74937 42.56 41.77187 40.15937 37.96 35.52438 33.04937 30.89625 29.30313 28.15625 27.2625 26.55062 24.7625 21.77438 20.47688 21.96062 23.92 23.96938 22.66187 21.30938 19.855 18.53062 18.2375 18.75 19.02813 19.40125 20.395 21.37938 21.71188 21.88938 22.29125 22.6025 22.905 23.6075 24.855 26.45938 28.205 29.12187 28.62812 28.39938 29.3575 30.93563 32.9775 34.99313 36.68625 38.32812 39.47125 39.79688 40.61813 41.71938 41.37437 40.54875 40.49875 40.27562 39.53125 39.28688 39.79125 40.54313 41.19062 41.67437 42.3025 43.4325 45.21125 47.53563 49.995 52.21938 53.99187 54.6025
35.18813 37.53188 38.08562 37.57312 37.02438 36.79125 36.91875 37.48125 37.81313 37.59438 37.48563 38.05 38.72313 39.21313 39.76375 40.39375 41.13688 41.62062 41.93938 42.31313 42.49937 42.34312 41.53938 39.81688 37.56187 35.26188 32.96563 31.10312 29.74688 28.53563 27.5075 26.77062 24.50625 20.4475 19.04 21.46938 23.81187 23.83937 22.63813 21.14375 19.3475 17.95687 18.14375 19.04938 19.4025 20.15313 21.445 22.14875 22.33187 22.67625 22.81812 22.80375 23.20813 24.1125 25.56937 27.48125 29.3125 30.00125 29.39375 29.21437 30.32875 32.18562 34.5625 37.11187 39.31625 41.13625 42.41063 42.70875 42.97688 43.5075 43.43125 43.185 42.93687 42.2675 41.61063 41.5925 42.02813 42.76625 43.36625 43.1825 42.94188 43.57 45.1075 47.13937 49.15062 50.9025 52.74812 54.14563
33.64313 35.6425 37.18312 37.93063 37.2425 35.96812 35.58375 36.03 36.37188 36.36375 36.5225 37.255 38.12688 38.83562 39.51313 40.11438 40.61562 40.98375 41.38375 41.83062 42.02438 41.82063 40.99438 39.35437 37.21125 34.96938 32.91125 31.36625 30.07438 28.73562 27.63062 26.43687 23.69875 20.11312 19.58 22.22688 23.86312 23.58625 22.85375 21.33125 18.96125 17.32312 17.44875 18.47875 19.8975 21.5375 22.47563 22.66313 23.1625 23.82688 23.47313 23.16375 23.67063 24.46625 25.59625 26.895 27.99125 28.5475 28.65937 29.16687 30.615 32.7025 35.17437 37.90187 40.395 42.16687 43.185 43.385 43.33125 43.88313 45.08 46.12188 45.89375 44.80312 44.29813 44.56813 44.94563 45.66 46.11625 45.25687 44.38937 44.83688 46.38937 48.39875 50.1975 51.48188 52.78 53.86375
31.36 33.5675 36.15937 37.92188 37.77375 36.16938 34.9375 34.80125 35.08562 35.34063 35.775 36.58937 37.51313 38.21938 38.76875 39.32187 39.7925 40.23125 40.69812 41.02 41.13625 40.965 40.23 38.67375 36.34125 33.79937 31.94687 30.91063 29.93125 28.67687 27.54563 25.8475 23.02062 20.77563 20.8825 22.6325 23.46812 23.1975 22.50375 20.59625 18.24187 16.83312 16.60437 17.43063 19.43 21.46062 22.16688 22.61875 23.68125 24.175 23.75063 23.83063 24.27125 24.47563 25.11188 25.825 26.29188 26.92625 27.7 28.72375 30.28687 32.29313 34.56813 36.88375 38.77625 40.01 40.75438 41.33875 42.135 43.43625 45.46938 47.54375 48.15875 47.41563 46.95063 47.22063 47.59375 47.94625 47.70813 46.64125 46.37437 47.52187 49.20875 50.96563 52.2525 52.82687 53.2075 53.46125
29.64688 32.28 35.19437 37.2175 38.11063 37.27187 35.13625 34.085 34.36375 34.825 35.3625 36.06125 36.81125 37.41938 37.96062 38.56187 39.07 39.52 39.94812 40.06375 39.89062 39.67313 39.3525 38.15313 35.19062 31.7525 30.1225 29.92875 29.37187 28.16937 27.10062 25.88125 24.29688 23.16937 22.79875 22.97875 23.00625 22.375 20.65438 18.40562 17.09937 16.43875 16.09813 16.54375 17.8525 19.62437 21.16438 22.70375 23.93438 23.99625 23.8375 24.31 24.57187 24.25 24.31063 24.77188 25.28938 26.15688 27.37687 28.73438 30.08562 31.66125 33.47562 35.21375 36.58375 37.61312 38.51937 39.67313 41.28812 42.89687 44.5975 46.6975 48.45813 49.1325 49.15813 49.34375 49.5675 49.38063 48.50438 47.61562 48.59625 50.98375 52.77375 53.71875 53.82312 53.37312 53.065 52.66813
29.7325 32.39062 35.08125 36.71687 37.29937 36.83187 35.09813 33.86562 34.0125 34.60375 35.16438 35.71188 36.32938 36.94188 37.54813 38.20375 38.71188 38.94188 39.14437 39.12938 38.6175 38.29375 38.40187 37.6325 34.285 30.2125 28.88875 29.17813 28.55188 27.27875 26.39625 25.68125 24.9275 24.2775 23.60813 23.0775 22.75625 21.39 18.8 17.23 16.83438 16.44125 16.3575 16.8975 17.60563 18.60563 20.43375 22.60938 23.735 23.69938 24.10312 24.85687 24.79812 24.18188 23.88437 24.12125 24.80188 25.94 27.57187 29.13125 30.18812 31.495 33.0825 34.54875 35.89125 37.1325 38.55188 40.1775 41.69062 42.9325 44.22688 46.02875 48.29625 50.05812 50.70687 51.08187 51.15812 50.37437 49.34562 48.9775 50.45 53.23063 55.05 55.06813 53.89875 52.7175 52.18625 51.57375
30.92375 33.1475 35.27 35.975 34.90562 34.57438 34.62062 33.975 33.88063 34.4725 35.04062 35.52062 36.05875 36.66188 37.27813 37.90688 38.40438 38.57625 38.58187 38.38688 37.78188 37.5475 37.55188 36.48125 33.2325 29.43687 28.31625 28.51125 27.74375 26.57625 25.71938 24.91813 24.17937 23.73938 23.2375 22.64812 22.31625 20.98375 18.78437 17.73125 17.13938 16.71188 17.24875 18.39 18.84375 18.86875 20.4275 22.72875 23.59438 23.86938 24.985 25.71938 25.21062 24.44875 24.13625 24.32688 25.12813 26.49562 28.15937 29.51125 30.5875 32.2975 34.33 35.98 37.39125 38.68312 40.115 41.77625 43.1975 44.25125 45.25438 46.615 48.50687 50.30563 51.44625 52.29313 52.39938 51.28 50.32625 50.5325 51.79625 53.56125 54.535 53.92438 52.52875 51.42688 50.83937 50.20375
31.30688 33.2675 34.69688 34.78563 33.55875 33.51437 34.08313 34.09875 34.10938 34.40937 34.87875 35.435 36.1125 36.62625 36.9275 37.35563 38.01812 38.52063 38.4625 38.02937 37.54438 37.54438 37.19375 35.11312 31.64625 28.66187 27.9425 27.91875 26.9725 25.87938 24.96437 24.10125 23.51063 23.08813 22.42562 21.66625 21.25312 20.6225 19.27625 17.74625 16.69375 16.71062 17.76125 19.0525 19.18563 19.39625 21.44563 23.1125 23.45938 24.475 25.96563 26.22437 25.55812 25.00125 24.81875 25.19813 26.3075 27.90937 29.45875 30.62188 31.79375 33.73875 36.1225 38.0175 39.52187 40.88313 42.215 43.795 45.31937 46.41063 47.12 47.91875 49.23812 50.8275 52.24937 53.255 53.2875 52.30312 51.66563 52.20125 53.2125 53.53375 52.76625 51.61938 50.6425 49.9325 49.655 49.48812
30.65688 32.61937 33.585 33.72437 34.06937 34.01688 34.21938 35.13875 34.985 34.465 34.62375 35.1675 35.93125 36.44687 36.55312 36.67562 37.49062 38.49812 38.5325 37.87062 37.32 37.35938 36.875 33.91063 29.74688 27.56938 27.63437 27.41313 26.0775 24.94938 24.03188 23.08313 22.56688 22.08375 21.22938 20.47313 20.01125 19.54125 18.48812 16.64688 15.67562 16.355 17.6625 18.7525 19.01937 20.34188 22.80812 23.40937 23.63125 25.31812 26.6825 26.795 26.26687 25.7325 25.64187 26.35813 27.85312 29.615 31.0975 32.17437 33.20875 34.79313 36.8125 38.57063 40.13688 41.91312 43.86687 45.75562 47.3425 48.57938 49.32125 49.78125 50.69188 52.16938 53.66687 54.56937 54.43375 53.58875 53.165 53.34438 53.44188 52.7125 50.95438 49.42 48.59375 48.17062 48.3975 48.98438
30.14563 31.6325 32.0875 32.25875 33.49937 33.71938 34.70312 36.515 35.70187 34.41375 34.30875 34.47813 34.95625 35.75063 36.13688 35.91687 36.435 37.535 37.73125 37.08187 36.3325 36.10437 35.82812 33.1275 28.64062 26.5425 26.88563 26.48063 25.09875 24.0275 23.01813 21.94188 21.37813 20.95125 20.19 19.74688 19.37313 18.245 16.79812 15.36625 14.55375 15.18 17.11125 18.83125 19.67 21.35625 23.1825 23.78938 25.065 26.645 27.07187 27.04062 26.6475 26.05313 26.09375 27.30688 29.27812 30.98875 32.23687 33.125 33.76875 34.93938 36.93938 38.91438 40.58437 42.56187 44.93875 47.13937 48.97187 50.7775 52.125 52.61 53.1775 54.60437 56.00563 56.26437 55.62625 54.81375 54.16625 53.16438 51.85812 50.62938 48.91125 47.26125 46.40313 46.23 46.62875 47.4275
29.845 30.43438 30.29313 30.73812 32.1325 32.82312 34.14812 35.77312 35.11813 34.12875 33.9725 33.77438 33.95375 34.68562 35.07375 34.765 35.06437 35.955 36.04125 35.42375 34.78125 34.43 34.38438 32.49313 28.24 25.885 25.39 24.1125 23.37188 22.96 21.89563 20.92188 20.43937 20.08562 19.50063 19.24375 18.82875 17.2325 15.52437 14.83562 14.72875 15.18313 16.99813 19.08813 20.57937 21.99063 23.02938 24.55875 26.5025 26.7225 25.85375 25.5275 25.465 25.48313 25.95938 27.68063 30.07312 31.54 32.4475 33.175 33.37125 34.28437 36.8725 39.56562 41.43625 43.27063 45.47438 47.7 49.92437 52.5325 54.67188 55.45187 55.90313 57.53313 58.79 57.7825 56.30563 55.2825 53.71 51.53313 49.83375 48.84375 47.15937 45.195 44.35062 44.58125 45.0825 45.62062
29.55875 29.61938 29.14187 29.975 31.58562 32.52125 33.06375 33.755 33.93188 33.745 33.51875 33.13375 32.90812 32.9775 33.20187 33.39312 33.89312 34.55062 34.48625 34.0275 33.72 33.30125 32.59 30.11062 26.415 24.50625 22.45625 20.32625 21.1525 21.9125 21.04625 20.30812 19.76875 19.26937 18.77563 18.36938 17.68062 16.24063 14.77 14.48125 15.40563 16.62188 17.73187 18.95062 20.59188 21.9275 22.86437 24.4675 25.36687 24.38437 23.39625 23.42687 24.005 24.83875 25.75562 27.39313 29.48562 30.7925 31.66125 32.38063 32.50938 33.37875 36.195 39.2425 41.37312 43.2525 45.35125 47.575 49.94 52.52813 54.69938 55.99562 57.08375 58.99438 59.90875 58.37062 56.4975 54.4825 51.61938 49.0425 47.56375 46.875 45.33562 43.16375 42.48438 43.43063 44.4125 44.58562
29.59813 30.03437 29.8825 30.34312 31.46938 32.3125 32.4175 32.6275 33.05 33.13187 32.84687 32.27187 31.57625 31.21688 31.49375 32.095 32.65875 32.97 32.94812 33.16438 33.36125 32.61875 30.59562 26.9825 24.3575 23.29187 20.4925 18.66438 20.13313 21.0925 20.67125 20.06875 19.095 18.29 17.83125 17.22625 16.31562 15.14375 14.08813 13.93813 15.07562 16.80812 17.995 18.69375 19.83 21.05 21.82125 22.24813 22.03687 21.48438 21.58 22.55062 24.02625 25.45813 26.46812 27.4275 28.55688 29.59875 30.5025 31.24438 31.6825 32.66563 35.0725 37.92562 40.4025 42.65062 44.90562 47.17375 49.29375 51.33937 53.42688 55.57812 57.69125 59.23688 59.13688 57.75563 55.78875 52.63688 49.26062 46.895 45.19563 44.03875 42.56562 40.94938 41.25563 43.01812 44.16875 44.07438
29.5275 30.72062 31.20125 31.06375 31.27125 31.66063 31.795 32.03938 32.30125 32.2825 32.00938 31.41375 30.5775 30.115 30.385 30.8975 31.24438 31.47313 31.6675 32.34875 32.79688 31.75562 29.15187 25.76625 24.15313 23.57438 21.62687 20.18312 20.21688 20.18375 19.9575 19.585 18.4525 17.4425 16.92438 16.16375 15.13437 14.19625 14.00313 14.54937 15.26312 16.34125 17.54563 18.45687 19.2175 19.66125 19.7425 19.6325 19.59 20.00937 21.11875 22.92937 25.29188 27.575 28.83063 29.065 29.22875 29.66313 30.21125 30.98688 31.86813 32.78313 34.24375 36.53375 39.29625 41.90562 44.155 46.26437 48.4625 51.11813 54.14625 57.11562 59.27438 59.415 57.95312 56.30437 54.04313 50.56313 47.26125 45.04375 43.11375 41.19688 39.40625 38.695 40.3525 42.69188 43.69312 43.66438
29.4025 30.39437 31.0575 31.13812 31.39313 31.3825 31.12437 31.20625 31.32937 31.22125 31.01562 30.63875 29.98063 29.5125 29.6825 30.05437 30.31562 30.77312 31.25687 31.63187 31.6225 30.38625 27.76562 25.08063 23.85375 23.43063 22.49438 21.11188 19.96 19.0975 18.67312 18.57812 17.80563 16.98 16.5175 15.5825 14.37438 13.58125 14.15687 15.14125 15.345 16.005 17.02687 17.8825 18.28437 17.96 17.81875 18.21625 18.93312 20.11813 21.9575 24.10062 26.57 29.60687 31.75875 32.14 31.88062 31.52188 31.52125 32.29063 33.2 33.69375 34.36063 36.13875 38.64625 40.99375 43.03313 45.33937 48.5225 52.51312 56.37188 59.1525 60.07188 58.61438 56.36562 54.5675 52.19313 48.87938 45.72375 43.41188 41.15813 38.60875 36.70438 36.62625 38.63688 41.17437 42.80938 43.55375
29.67875 30.26875 30.925 31.33438 31.845 31.46812 30.54313 30.1825 30.12375 29.9775 29.84937 29.72688 29.41312 29.23125 29.40812 29.57187 29.67125 29.9875 30.31063 30.11125 29.80812 28.66 25.955 23.84063 23.0475 22.39625 21.29 20.07812 19.12062 18.18625 17.60375 17.54 17.29625 16.97563 16.695 15.83125 14.52812 13.48812 13.73938 14.41562 14.80875 15.85312 16.80125 17.16125 17.00125 16.73438 17.09375 17.95125 19.15063 20.83125 23.03875 25.23625 27.35813 30.025 32.565 34.07812 34.49187 33.93563 33.68375 34.31375 34.88 34.94938 35.33313 36.77188 38.61063 40.2925 42.39375 45.41625 49.11375 53.01 56.30938 58.26625 58.40812 56.60062 54.575 53.11625 50.75 47.64125 44.73 42.03437 39.1575 36.25312 34.525 34.74437 36.51625 38.99187 41.48312 43.45062
29.67937 30.605 31.39688 31.70062 31.65187 30.79125 29.72563 29.22313 29.06437 28.86375 28.68875 28.72125 28.64812 28.58063 28.94 29.42188 29.37938 28.54625 27.45625 26.88688 27.46688 27.19312 24.74937 23.03188 22.56437 21.64 20.125 19.06063 18.44938 17.6075 17.00438 16.84813 16.86687 16.98938 16.97938 16.58187 15.39313 13.78625 13.37875 13.9325 14.58187 15.53562 16.35563 16.5975 16.53812 16.77563 17.51188 18.5625 19.86375 21.49625 23.40375 25.44312 27.39625 29.21688 31.23625 33.43563 35.01813 35.44188 35.5625 36.3075 37.0875 37.20375 37.30125 37.89312 38.90625 40.20125 42.33125 45.22625 47.98063 50.84438 53.43562 55.13937 55.60938 54.32312 52.84813 51.92937 49.775 46.58062 43.40875 40.16375 36.925 34.18625 32.83187 33.18625 34.72313 36.97562 39.75312 42.67812
29.28312 30.35875 31.3175 31.46313 30.7375 29.65375 28.82125 28.43 28.23187 27.945 27.70687 27.8075 27.82812 27.50312 27.79875 28.94312 29.6 28.1625 25.2575 24.11062 25.39062 25.8925 24.2475 22.70563 22.0675 21.41063 20.3125 19.05062 18.0275 17.21188 16.775 16.50625 16.36625 16.66187 16.74375 16.26875 15.0975 13.55188 13.38562 14.22437 14.55812 14.945 15.7925 16.56688 17.14437 17.75 18.69938 19.95563 21.23125 22.63688 24.15187 25.70312 27.25687 28.71812 30.40938 32.58438 34.96125 36.73188 37.44 38.24438 39.465 40.115 40.24813 40.04187 39.99 40.59187 42.075 43.9975 45.92438 48.415 50.84438 52.5375 53.09813 52.10437 50.99187 50.42812 48.78812 45.545 41.61625 37.82 34.64 32.45813 31.7125 32.27625 33.68312 35.72187 38.33812 41.40562
28.955 29.76188 30.47625 30.34188 29.55875 28.935 28.3425 27.8 27.5075 27.29812 27.17 27.39563 27.49688 26.94687 26.73125 27.50125 28.65 28.28812 25.69188 23.95 24.29188 24.45938 23.50937 22.33688 21.6725 21.335 20.44312 18.88938 17.59 16.97062 16.73625 16.41187 16.19437 16.35813 16.10125 14.9475 13.53063 12.62062 13.11063 14.19812 14.42625 14.68312 15.695 17.00687 18.09813 18.83375 20.05938 21.85563 23.41187 24.8975 26.45687 27.8 28.87062 29.77875 31.04062 33.06063 35.65187 37.75875 38.62 39.35125 40.81 42.36687 43.29 43.05688 42.23312 41.93125 42.52125 43.76188 45.46938 47.82687 50.27875 52.02375 52.44938 51.21 49.46625 48.16875 46.70125 43.93125 39.71437 35.7 32.955 31.51625 31.47688 32.49875 34.20063 36.32125 38.55312 40.83937
28.38688 28.95375 29.17375 28.83625 28.45875 28.39812 28.00562 27.34188 26.92937 26.9 26.98063 27.23438 27.33625 26.62 25.92875 25.97688 26.7 27.07812 25.88313 24.76625 24.92562 24.5725 23.23688 21.95312 21.33063 20.98875 19.86625 18.35063 17.22688 16.53938 16.25125 16.11312 15.99063 15.89188 15.64812 14.51562 12.74687 11.97563 12.61 13.61375 14.19063 14.75438 15.77063 17.18438 18.51562 19.39437 20.86312 23.075 24.90562 26.59813 28.40313 29.95938 31.02375 31.57438 32.50938 34.26375 36.03188 36.9875 37.535 38.565 40.49937 43.24688 45.335 45.4 44.57188 44.28625 44.54625 45.455 47.00687 49.2275 51.69563 53.39 53.66625 51.84125 48.62687 45.99313 44.18687 41.535 37.63813 34.21313 32.22813 31.61 32.29688 33.99875 36.41875 39.18375 41.505 42.77687
27.23562 27.88812 28.21625 27.995 27.67875 27.6025 27.47625 27.11438 26.56875 26.4425 26.62938 26.68063 26.5825 25.85188 25.06437 25.04 25.41625 24.97812 23.78563 24.01062 25.68312 25.83 23.8075 21.83688 20.93687 20.34875 19.1425 17.68063 16.70375 15.87187 15.23 15.28562 15.0975 14.33375 14.115 13.61812 12.22813 11.73438 12.495 13.69375 14.92875 15.8025 16.41688 17.2175 18.335 19.47875 21.00625 22.86437 24.39062 26.01188 27.85 29.54375 31.06125 32.30812 33.62062 34.93625 35.45562 35.28687 35.56688 36.85875 39.16375 42.48687 45.19 45.68937 45.605 46.25188 46.92625 47.84813 49.4975 51.56062 53.2675 54.03437 53.77375 52.05375 48.83313 45.41438 42.51125 39.30688 35.93938 33.4425 32.1975 32.25938 33.60563 36.06562 39.56937 43.39625 45.85312 46.37625
25.545 26.52563 27.435 27.56375 27.16312 26.89875 26.93125 26.90625 26.40812 25.93937 25.82812 25.62938 25.30875 24.74937 24.3 24.38875 24.05313 22.5125 21.2925 21.95563 24.2975 25.415 23.59063 21.70062 20.70375 19.64188 18.31875 16.9025 15.96625 14.79813 13.42813 13.11875 12.76125 11.6625 11.38313 11.49875 11.17688 11.50813 12.76062 14.35875 15.88062 16.81688 17.26813 17.85188 18.925 20.00063 21.07063 22.39062 23.57375 24.97875 26.60938 28.215 30.12437 31.96313 33.29438 34.02 34.03812 33.845 34.26562 35.57687 37.6125 40.38063 42.84875 43.8625 44.68813 46.11125 47.32188 48.54562 50.46625 52.3 52.80625 52.34375 51.51812 50.3825 48.44812 45.1075 41.27875 37.94 35.28313 33.4825 32.64 32.99187 34.77625 37.85375 42.18875 46.495 48.6575 49.12563
23.7225 24.89625 26.12313 26.59937 26.44 26.12875 25.99063 26.13 25.9975 25.43375 24.95625 24.53375 24.06063 23.80062 23.4675 22.53938 21.22625 20.12125 19.90937 20.52437 22.075 22.83875 21.49625 20.5725 19.90937 18.56563 17.14563 15.855 14.75187 13.01188 11.00625 10.0475 9.74875 9.453125 9.859375 10.5325 10.64563 11.25813 12.71813 14.13875 15.24 16.0925 16.9725 18.21812 19.6075 20.3975 21.05437 22.31125 23.53813 25.03312 26.73625 28.14937 29.81187 31.25813 31.905 32.07875 32.16937 32.49187 33.31 34.59625 36.15688 38.06125 39.98687 41.3 42.36562 43.79313 45.31187 46.76188 48.81812 50.70187 50.8525 49.98938 48.85625 47.6225 46.08 43.2975 39.9925 37.355 35.485 34.22625 33.52625 33.81375 35.65875 38.93562 43.09312 46.91625 49.21 50.23188
22.28687 23.36188 24.43 24.9875 25.21375 25.20375 25.055 25.35938 25.46688 24.8525 24.29313 23.74562 23.40063 23.33625 21.8375 19.18125 17.72875 17.65688 18.24625 19.105 19.76 19.62 18.77 18.36687 17.92625 16.7725 15.37813 14.09688 12.90312 11.24375 9.4475 8.459375 8.29125 8.559375 9.436875 10.3325 10.53938 11.0875 12.24813 13.24687 14.1175 15.0725 16.21437 17.59312 18.92188 19.80563 20.66125 21.99063 23.70438 25.89187 27.82438 28.9675 29.85063 30.35063 30.30688 30.1825 30.64187 31.86813 33.19125 34.2775 35.44437 36.74562 38.11187 39.3125 40.23188 41.44125 43.02 44.72375 47.1275 49.59187 50.5 49.81688 48.11562 46.08125 44.0075 41.58062 39.20312 37.39938 36.21375 35.42875 34.86188 34.9225 36.30625 39.04625 42.28875 45.16563 47.29125 48.42062
21.2125 22.02188 22.79062 23.30688 23.68312 24.06875 24.40063 24.81562 24.64625 23.8275 23.425 22.82125 22.06437 21.36125 18.9125 15.95437 14.61375 14.47375 15.2 16.4375 17.2775 17.32063 16.88187 16.40125 15.87313 14.93188 13.68563 12.48187 11.3875 10.0775 8.77 8.166875 8.095 8.32875 8.986875 9.74125 10.3975 11.31437 12.45 13.38875 14.155 15.08313 16.24875 17.52 18.90688 20.25187 21.33813 22.36938 24.1775 26.635 28.34562 29.12062 29.34375 29.125 28.84 28.84562 29.81625 31.94312 33.94812 35.31125 36.5 37.3025 38.05188 39.07125 40.13375 41.2 42.38688 44.2525 47.1225 50.25 52.10125 51.44 48.84813 46.1 43.72437 41.4875 39.61625 38.32188 37.59187 37.19812 36.705 36.25063 36.73312 38.37938 40.49937 42.40375 43.68875 44.54
20.02875 20.68875 21.25937 21.77062 22.08875 22.48187 23.09375 23.49125 23.46812 23.01875 22.24937 20.82562 18.64688 16.87375 15.07812 13.12313 12.04187 11.86625 12.5625 13.915 15.1325 15.50375 15.1775 14.73938 14.30188 13.58375 12.65 11.67688 10.66938 9.40625 8.150625 7.706875 7.885 8.286875 8.898125 9.636875 10.64188 11.965 13.62625 15.07938 15.58687 15.89437 16.85188 18.27687 20.06875 21.8925 23.21812 23.9925 24.88437 26.35813 27.56375 28.02438 27.96625 27.6 27.5075 27.93875 29.1025 31.655 34.61813 36.97313 38.97562 40.14312 40.59 41.10875 42.02187 42.95687 43.93063 45.7025 48.23688 51.16625 53.16813 52.47562 49.80625 47.00813 44.69 42.76625 41.24125 40.2075 39.74062 39.66187 39.195 38.18438 37.69875 38.18375 39.09625 39.91312 40.46188 41.16375
18.66 19.30375 19.68 20.24 21.03375 21.56187 21.6725 21.52312 21.75 21.71062 19.94312 17.34063 14.80437 13.01437 12.02 11.10563 10.61125 10.64688 11.17375 12.18062 13.0875 13.31375 13.03062 12.8125 12.71813 12.51125 12.17313 11.40375 10.08687 8.653125 7.61125 7.34125 7.64625 8.3 9.245 10.1525 11.15063 12.61812 14.65125 16.61875 17.30875 17.21625 17.73812 19.06313 20.86938 22.80875 24.6175 25.49562 25.30562 25.46 26.0575 26.36875 26.54313 26.66688 27.09063 27.88375 28.89437 31.30437 34.72562 37.60062 40.50312 43.17875 43.94125 43.63625 44.35188 45.70375 46.9325 48.4 50.06375 52.12125 53.77 53.43875 51.3825 48.72438 46.52438 45.03313 43.81375 42.87 42.49 42.56875 42.23063 41.06125 39.87188 39.30437 38.92188 38.30437 37.98375 38.31562
17.44375 17.98625 18.10312 18.505 19.67312 20.51 20.40187 19.76937 19.30125 18.70188 16.73063 14.2925 12.56875 11.49375 10.90625 10.53187 10.25438 10.07312 10.19625 10.73125 11.28438 11.4175 11.23187 11.14188 11.22125 11.57312 11.93125 11.14937 9.3075 7.754375 7.1075 7.12 7.598125 8.5375 9.74 10.81625 11.72625 13.03438 14.91187 16.8475 18.1025 18.59937 19.12062 20.2 21.76375 23.6275 25.31187 25.58813 24.64812 24.2275 24.57313 25.26375 26.28563 27.35 28.55938 29.58688 30.08063 31.33937 33.91813 36.8575 40.305 43.65 44.67812 44.515 45.84875 47.93312 49.27063 50.08813 50.81062 51.99688 53.86125 54.80062 53.4825 50.94687 49.03812 48.175 47.25938 46.12125 45.60062 45.60875 45.30687 44.14375 42.60125 41.21 39.81125 38.21625 36.92812 36.32625
16.14875 16.48 16.45625 16.59063 17.44438 18.27438 18.58688 18.27687 17.33187 16.00125 14.32187 12.80812 11.80375 11.30188 11.1825 10.99938 10.51188 9.830626 9.438126 9.608125 10.00625 10.145 10.0175 9.9825 10.1025 10.78687 11.49625 10.52563 8.445 6.949375 6.439375 6.655625 7.648125 9.065625 10.24875 11.48312 12.61438 13.65125 15.11875 16.83937 18.51062 19.81125 20.74562 21.70062 22.8825 24.1725 24.74562 24.03687 23.06688 23.025 23.97437 25.695 27.6825 29.3525 30.92438 32.12313 32.19437 31.99562 33.10625 35.69313 39.135 42.15063 43.42625 44.17812 45.885 47.85125 49.09187 49.52813 49.97937 51.17375 53.32125 55.01437 54.44437 52.53 51.1325 50.70375 50.01375 48.92 48.43438 48.29375 47.80375 46.61125 44.92688 43.2075 41.74437 40.02875 37.92812 36.13187
14.29813 14.41187 14.66375 15.28438 16.39 17.18937 17.19687 16.63625 15.60938 14.2825 13.04125 12.24187 11.85563 11.86125 12.07938 11.945 11.0825 9.810625 8.996875 8.87375 9.17 9.374374 9.270625 9.190001 9.23125 9.82125 10.36 9.365 7.515 6.215 5.695625 5.979375 7.404375 9.275625 10.61687 12.03375 13.54375 14.9675 16.51625 17.7825 19.05062 20.46313 21.59562 22.36188 22.85188 23.13812 22.9325 22.21938 21.83813 22.48125 24.3925 27.01937 29.24438 30.95125 32.61438 34.22313 34.58 33.58562 33.43625 34.92875 37.63625 40.70438 42.665 43.90125 45.185 46.51062 47.7425 48.34063 49.28062 51.24 53.18438 54.14125 53.68687 52.51313 51.54375 50.89687 50.15562 49.455 49.16187 48.99625 48.51688 47.40875 45.58375 44.04313 43.31062 41.75625 39.00125 36.46938
12.49562 12.47437 13.14812 14.6675 16.74187 18.07937 17.55313 15.96937 14.5425 13.43688 12.77312 12.64313 12.7075 12.63062 12.2775 11.72875 10.69063 9.45375 8.771875 8.505 8.77 9.259375 9.248125 8.8 8.41125 8.530625 8.560625 7.673125 6.3975 5.550625 5.22875 5.683125 7.3225 9.5175 11.43688 13.06063 14.53125 16.5325 18.67875 19.4675 19.65875 20.38 21.06187 21.28188 21.17937 21.03812 20.96062 20.885 21.19125 22.335 24.6125 27.26937 29.14 30.73063 32.79562 35.28625 36.5525 35.77063 35.28938 36.185 38.115 40.8 42.82687 43.84687 44.585 45.39312 46.36625 47.285 48.72375 50.93625 52.97187 53.78938 53.07 51.81438 51.0025 50.29 49.14312 48.00063 47.35563 47.07563 46.86312 46.065 44.32875 43.11187 42.85 41.30312 38.24062 35.71062
11.60312 11.6275 12.55 14.56312 17.19813 19.01625 18.52687 16.4175 14.59937 13.49125 13.20813 13.52938 13.34562 12.31688 10.90187 9.84125 9.02125 8.38625 8.195625 8.204375 8.75875 9.528749 9.453125 8.48875 7.5725 7.216875 6.843125 6.055 5.2725 4.8825 5.216875 6.499375 8.25875 10.22625 12.40875 14.28875 15.77437 17.58625 19.4425 20.19375 20.05062 19.86875 19.61938 19.22375 18.97437 19.0725 19.46313 19.9925 20.80625 22.00312 23.72062 25.80875 27.55812 29.15187 31.505 34.74313 37.29313 37.95625 38.30125 39.66312 41.305 42.6625 43.58875 44.00563 44.3675 44.92812 45.61 46.69437 48.38062 50.32125 52.20875 53.19437 52.42875 51.06063 50.54 50.32625 49.06625 47.02562 45.40313 44.5625 44.24937 43.69875 42.51062 41.53188 41.1175 39.77 37.18687 34.89812
11.45375 11.65938 12.70312 14.81563 17.31812 18.78188 18.26063 16.36125 14.46 13.25562 13.2 13.44188 12.45813 10.63437 8.98 8.035625 7.665625 7.53875 7.665 8.065625 8.92375 9.721875 9.339375 7.891875 6.670625 6.12625 5.680625 5.069375 4.57625 4.4525 5.380625 7.405625 9.063125 10.34813 12.17875 14.22625 16.14625 17.7575 18.78 19.51625 19.91438 19.32187 18.17375 17.46187 17.48438 18.24688 19.52375 20.79625 21.78437 22.36687 23.04437 24.44625 26.0675 27.62687 29.94 33.36937 36.93813 39.19687 40.55875 42.57188 44.33 45.01562 45.27813 45.06562 44.93063 45.48875 46.32875 47.22625 48.48312 49.9075 50.95062 51.26437 50.7925 50.15813 49.97937 50.1475 49.39563 47.00687 44.3275 42.675 41.945 41.4425 40.77187 40.02625 39.55437 38.69625 36.78437 34.45375
11.57 11.95875 13.02125 14.92562 16.91687 17.74063 17.01687 15.39875 13.51562 12.18062 12.0725 12.00438 10.76125 8.951875 7.629375 7.265 7.44 7.70625 8.122499 8.545 8.958125 9.181875 8.4075 6.839375 5.8375 5.548125 5.14125 4.610625 4.18875 4.2275 5.4175 7.325 8.7375 9.813126 11.32563 13.14062 15.11063 16.92562 17.8325 18.34063 18.83312 18.23313 16.91125 16.37125 17.07562 18.87125 21.06688 22.80563 23.65812 23.67688 23.81625 24.72062 26 27.39125 29.28812 32.30563 35.89625 38.5175 40.47063 42.98938 45.12062 46.61875 47.68875 47.4475 46.84438 46.89625 47.28563 47.90562 48.92125 49.79562 49.905 49.54187 49.35 49.29 49.02813 48.98687 48.35437 46.03375 43.18125 41.19062 40.11563 39.49562 38.92812 38.35375 38.10563 37.40625 35.5125 33.21312
11.795 12.37687 13.50813 15.115 16.41813 16.54938 15.505 13.92688 12.15563 10.78938 10.3 9.900625 8.98875 7.665 6.826875 7.18125 7.9475 8.68125 9.339375 9.329375 8.641875 7.73625 6.659375 5.544375 5.115 5.19875 4.859375 4.41625 4.114375 4.266875 5.566875 7.30875 8.588125 9.53625 10.75625 12.22563 13.81625 15.47812 16.5925 17.0125 16.90875 16.32 15.6975 15.75688 17.05437 19.35437 21.54875 23.06 24 24.65938 25.3875 26.27 27.55688 29.11875 30.39125 32.055 34.43187 36.49937 38.6225 41.21625 43.7225 46.52625 48.91 49.72438 49.9475 49.56375 48.355 48.17062 49.24187 49.71938 49.15375 48.53938 48.54625 48.5875 47.96875 47.18 45.98563 44.04875 41.98188 40.25312 39.085 38.275 37.46625 36.64812 36.14 35.15937 33.13062 31.19812
12.11438 13.0375 14.55437 16.14062 16.82187 16.09625 14.47812 12.75438 11.13188 9.754375 8.718124 7.8875 7.285 6.6675 6.61375 7.66125 9.070625 10.21 10.39188 9.313126 7.556875 6.066875 5.21 4.6575 4.48875 4.613125 4.48 4.243125 4.23 4.764375 6.12625 7.756875 8.906875 9.70375 10.77063 11.8725 12.84188 13.96187 15.11625 15.62313 15.1525 14.69812 14.87438 15.5025 16.815 18.70875 20.485 21.93188 23.57 25.50125 26.95312 28.02625 29.81313 32.02187 32.9375 32.96 33.84063 35.43938 37.2775 39.32812 41.79625 44.86875 47.69125 49.57375 51.08875 51.13937 49.135 48.17 48.87437 49.25687 48.7325 47.95875 47.78938 47.57875 46.735 45.64938 44.325 43.06 41.8525 40.51188 39.42562 38.42125 37.23125 35.97875 34.8375 33.3875 31.42125 29.66125
12.6925 14.1925 16.4725 18.36375 18.56375 16.96563 14.62938 12.51625 10.74125 9.1725 7.81 6.730625 6.285625 6.535 7.48375 8.909375 10.44188 11.32125 10.39937 8.091875 5.7925 4.693125 4.46625 4.235 4.135625 4.244375 4.3325 4.079375 4.084375 5.249375 6.94 8.28125 9.1 9.921875 11.03625 11.74125 12.13562 12.75 13.55375 14.05188 13.95375 13.99125 14.63813 15.56563 16.7975 18.57625 20.36563 21.81125 23.8875 26.4125 28.355 30.12938 32.355 34.71563 35.65313 35.335 35.85812 37.15063 38.31187 39.82063 41.73125 43.48563 45.41563 47.20312 48.74 49.405 48.56813 48.39 49.01375 49.23188 48.67937 47.5625 46.9775 46.34875 45.3975 44.69563 44.03125 43.525 42.88 41.8275 40.65125 39.31437 37.86125 36.39625 34.90437 33.24562 31.51125 29.545
13.55 15.60063 18.86812 21.17188 20.82312 18.45687 15.5875 13.08375 10.89375 8.877501 7.20375 6.008125 5.689375 6.456875 7.87625 9.24 10.38188 10.71813 9.2075 6.560625 4.53625 4.109375 4.1475 3.88875 3.870625 4.11 4.4275 4.34375 4.609375 6.195 7.926875 8.845 9.16125 9.718124 10.75313 11.44938 11.78813 12.1925 12.68812 13.19125 13.695 14.27375 15.05313 16.02312 17.28188 19.24625 21.27938 22.88625 25.18563 27.75937 30.19625 32.86875 34.78125 35.99688 36.85437 37.41625 38.49062 39.7725 40.70125 42.16875 43.70187 44.00875 44.30188 45.05875 45.90625 46.59187 47.0475 48.24688 49.3725 49.255 47.99313 46.8675 46.69812 46.07687 44.91625 44.36875 44.30375 44.2225 43.70125 42.69375 41.32312 39.73687 38.25188 36.77125 35.1725 33.545 31.8575 29.52625
14.61438 17.13562 21.10312 23.4725 22.36312 19.34687 16.39125 13.83813 11.1325 8.390625 6.3175 5.119375 4.82625 5.253125 6.0975 7.17625 8.210625 8.5075 7.4 5.395 3.99375 3.9275 4.053125 3.7425 3.4875 3.81625 4.52 4.989375 5.750625 7.29375 8.76 9.278749 9.201875 9.575 10.52063 11.29813 11.77188 12.30125 12.97937 13.76125 14.54937 15.26875 16.18875 17.23312 18.30375 19.83687 21.785 23.94375 26.5225 28.9375 31.34687 33.8575 34.895 34.92562 35.60563 36.9075 38.505 40.34375 42.04562 43.91188 45.51562 45.37688 44.4175 44.1025 44.24812 44.39125 44.92875 46.21062 47.49562 47.5675 46.29875 45.81937 46.54625 46.4675 45.53875 44.99625 44.7875 44.41563 43.69688 42.57938 41.11 39.58 38.26062 36.97187 35.4225 33.6375 31.66937 29.2
15.7625 18.81 22.83063 24.78312 22.83187 19.08125 16.175 13.86625 10.88188 7.465625 4.92375 3.84125 3.81375 3.884375 3.98 4.715625 5.65375 6.041875 5.6675 4.649375 3.79875 3.66375 3.79 3.471875 2.85125 3.419375 4.793125 5.749375 6.50625 7.661875 9.0225 9.50375 9.518125 9.999375 10.73 11.33125 11.86875 12.655 13.78375 15.08313 16.05688 16.83625 18.10062 19.33187 19.93625 20.57125 21.915 23.7075 25.86563 28.1025 29.97625 31.53563 32.42437 33.04313 34.17188 35.76 37.705 40.25438 42.9325 44.81688 45.65813 45.19625 43.86 42.87188 42.3875 42.18937 42.4525 42.8575 43.44563 43.79313 43.73625 44.69062 46.35125 47.04313 46.79813 46.48812 45.80437 44.59687 43.41813 42.19625 40.77375 39.46625 38.35437 37.39375 36.0525 33.92812 31.91562 30.04938
16.25063 19.58187 23.64062 25.80812 23.5675 18.80375 15.21125 12.7275 9.908125 6.67875 3.978125 2.905 3.17875 3.3025 3.139375 3.49 4.13625 4.5475 4.5875 4.28625 3.87875 3.515625 3.3075 2.905 2.58625 3.849375 5.846875 7.036875 7.67875 8.3975 9.16875 9.475625 9.752501 10.37438 10.96813 11.40875 11.93625 12.86875 14.27063 15.86188 17.195 18.44812 20.05937 21.49312 21.975 22.09188 22.695 23.44687 24.80938 26.68687 27.895 28.97375 30.69062 32.82125 34.82938 36.61875 38.56438 41.32875 44.50813 45.84 44.995 43.78812 42.65688 41.20375 39.73312 39.24875 39.64687 39.78 39.92812 40.24688 40.96437 43.13062 45.70625 47.2775 48.08062 48.04313 46.68938 44.74187 43.23812 42.05875 40.92562 39.76937 38.50312 37.48563 36.36375 34.2575 32.3225 31.13688
16.22625 19.12875 23.15125 26.17375 24.4125 18.92188 14.26562 11.3975 8.87125 6.364375 4.2375 3.188125 3.181875 3.148125 2.93625 2.9875 3.41875 3.9825 4.2675 4.30625 4.046875 3.46625 3.255625 3.414375 4.07125 5.900625 7.83875 8.85 9.295625 9.519375 9.549375 9.515625 9.825 10.5675 11.32375 11.8 12.23438 13.02 14.14625 15.45438 16.95687 18.70687 20.72562 22.69687 24.04 24.63938 24.74813 24.615 25.18188 26.5725 27.92688 29.5525 31.81688 34.41563 37.12875 39.5425 41.07438 42.74 45.12688 45.88313 44.35375 42.85875 42.0675 40.31562 37.51812 36.1775 36.7525 37.40937 37.54938 37.49 38.25187 40.76062 43.76875 46.33562 48.42625 48.44 46.22688 44.05688 42.82 41.85875 40.9475 39.74125 38.11438 36.65937 35.64188 34.12687 32.03188 30.58187
16.14 18.56063 22.15313 24.86437 23.3225 18.255 13.455 10.48875 7.881875 5.40125 3.921875 3.4375 3.36875 3.21875 3.123125 3.071875 3.1275 3.720625 4.51875 5.0375 5.1175 4.768125 4.774375 5.516875 6.80125 8.494375 9.856875 10.39688 10.36063 10.11438 9.90375 9.761875 9.941875 10.78125 11.91125 12.67813 13.09 13.52875 14.04562 14.76437 16.03625 17.80062 20.02875 22.6 24.80313 26.0225 26.21938 25.88 26.03625 27.38625 29.62812 32.17125 34.66563 37.17 40.16375 42.93875 43.66625 43.39625 44.01562 44.31 43.3425 42.12563 41.08688 38.99875 35.60687 33.51937 33.82687 34.46812 34.14875 33.78 34.99187 37.915 41.28563 44.23375 46.18937 46.05 44.24313 42.73 41.84625 41.0925 40.1575 38.59063 36.73687 35.04625 33.82187 32.51688 30.3025 28.32375
16.47688 18.84813 21.31937 21.83187 19.70437 15.99937 12.03125 8.77 5.801875 3.439375 2.735625 3.05875 3.18875 3.216875 3.728125 4.356875 4.4525 4.760625 5.6375 6.4425 7.4025 8.15375 8.105625 8.259375 9.266875 10.51 11.25375 11.20813 10.6525 10.17 10.10812 10.2125 10.45063 11.24312 12.495 13.78125 14.59437 14.74 14.67375 14.835 15.57125 16.94312 18.99187 21.53312 23.61625 24.85312 25.62437 26.23187 27.08625 28.85062 31.725 34.835 37.37 39.49812 41.79313 43.71812 43.78687 42.7325 42.31813 42.24313 41.72 40.66813 38.98875 36.3775 33.15562 31.05375 30.73375 30.57812 29.89437 29.7525 31.1775 34.39312 38.39062 41.05 41.76562 41.57063 41.14812 40.695 40.005 39.505 38.90062 37.0825 34.73438 32.765 31.22875 29.79938 27.80812 25.69437
17.755 18.91125 19.01312 17.24 14.75688 12.35437 9.53875 6.303125 3.479375 2.0125 2.0025 2.40375 2.563125 3.220625 4.92375 6.945625 7.89625 7.933125 7.89125 8.0475 9.2075 10.76125 11.01562 10.69 11.14375 11.88375 12.0525 11.48313 10.59562 10.08875 10.32687 10.96 11.63875 12.32438 13.06687 14.28 15.59562 16.2725 16.33438 15.93875 15.84625 16.68625 18.3325 20.3025 21.91688 23.18063 24.525 26.10312 27.89125 30.19875 33.405 36.54375 38.285 39.155 40.30625 41.5025 41.82188 41.28563 40.66063 40.15875 39.40375 38.0575 35.9875 33.3175 30.62875 28.8025 27.89938 26.96 26.05 26.31187 28.1375 31.38875 34.98125 37.01937 37.36938 37.33562 37.47813 37.47813 36.98312 36.45 35.99688 34.54688 32.1825 30.06187 28.49438 27.34125 25.92937 23.99562
19.15875 18.26687 16.14562 13.92188 11.67 9.466875 7.21875 4.48875 2.336875 1.699375 1.9325 2.06 2.371875 3.93125 6.5875 9.41625 11.17688 11.2525 10.30812 9.449375 9.6625 11.00625 12.11062 12.40125 12.60938 12.75375 12.415 11.58875 10.69 10.29875 10.72437 11.61687 12.5525 13.30812 13.7375 14.4175 15.72 17.32 18.21375 17.69438 16.9825 17.17875 18.185 19.57562 20.98625 22.48812 24.235 26.19437 28.29437 30.75875 33.78938 36.17375 36.825 37.0275 37.97562 39.24313 40.055 39.9925 39.28563 38.27125 36.77687 34.72313 32.48375 30.33562 28.41063 26.87313 25.6325 24.18813 23.02563 23.55125 25.82812 28.72625 31.04062 32.37875 33.12563 33.64812 34.11063 34.24375 33.72562 32.64437 31.56625 30.54812 29.15063 27.55562 26.09125 25.10563 24.29062 22.99313
19.71875 17.71375 14.7425 13.60812 12.24938 9.29875 6.328125 3.698125 1.961875 1.79625 2.37875 2.686875 3.460625 5.366875 7.688125 10.34375 12.63875 13.15687 12.075 10.74438 10.26188 11.13625 12.50187 13.14563 13.12813 12.91125 12.38188 11.50562 10.83875 10.74875 11.23438 11.95813 12.79438 13.66938 14.32938 15.14312 16.365 17.93937 19.195 19.29313 18.71062 18.36 18.735 19.81187 21.23375 22.87625 24.76375 26.81937 28.8425 31.10625 33.5 34.575 34.45875 34.94 36.28437 37.72937 38.7075 38.82438 38.10625 36.54813 34.03875 31.34875 29.32625 27.83688 26.575 25.32438 23.83187 22.26312 21.48937 22.0825 23.52375 25.31 27.10062 28.55313 29.77687 30.94812 31.83937 31.96938 31.14937 29.62125 28.14312 27.28188 26.67312 25.78125 24.58 23.5675 22.93438 22.2425
18.09438 15.62 13.1 13.34813 13.45813 10.41938 6.308125 3.291875 1.803125 1.815625 2.3825 3.34625 5.341875 7.18625 8.513124 10.69063 13.03375 13.93688 13.27125 12.05812 11.56625 12.18625 13.0775 13.37937 13.14875 12.82687 12.22125 11.3275 10.94312 11.28687 11.88313 12.44875 13.25875 14.24563 15.135 16.2525 17.58937 18.84375 19.97125 20.635 20.49375 20.00937 20.11062 21.125 22.61563 24.22187 25.92312 27.70625 29.2825 30.82812 32.135 32.26313 32.10938 32.86813 34.2825 35.86562 36.99187 37.27063 36.64938 34.74437 31.49375 28.45375 26.83063 25.97 25.26562 24.32812 22.73 21.165 20.79625 21.41688 22.07438 23.02375 24.85813 27.14375 29.07812 30.32063 30.86563 30.49813 29.1425 27.31875 25.9025 25.26625 25.01312 24.58375 23.815 23.03375 22.4975 22.045
14.07 11.44438 10.19625 11.07812 12.14188 10.16125 5.835 2.79125 1.9425 1.981875 2.239375 3.971875 6.944375 8.859375 10.06938 11.83562 13.48375 14.23563 13.97188 13.11562 12.76875 13.29375 13.86938 13.94187 13.675 13.21562 12.31812 11.37813 11.205 11.89062 12.73 13.46187 14.45625 15.42562 16.31375 17.57125 19.09813 20.33875 21.32688 22.15 22.31313 22.01125 22.20875 23.20125 24.51687 25.81812 27.05562 28.21625 29.04812 29.48688 29.64 29.64 30.07 30.94875 32.09188 33.61 34.85 35.31125 34.8575 33.17875 30.13437 26.89187 25.11875 24.61812 24.45687 23.89625 22.41937 20.83625 20.55938 21.32812 21.87062 22.505 24.18188 27.04938 29.83688 31.01625 30.68125 29.22562 27.24875 25.42 24.1 23.58688 23.51625 23.33625 22.945 22.5525 22.39187 22.19687
9.646875 7.36 7.066875 7.9675 9.46125 8.6075 4.949375 2.726875 2.5575 2.443125 2.78625 4.89 7.56375 9.62 11.47563 12.99125 13.96562 14.3925 14.27687 13.87 13.66937 13.975 14.48812 14.45625 14.005 13.52563 12.5575 11.515 11.35437 12.19438 13.29875 14.51625 15.72062 16.3975 17.305 18.93687 20.68937 21.92937 22.8325 23.745 24.23313 24.21938 24.51125 25.33063 26.12687 26.73187 27.28125 27.77875 27.95812 27.74625 27.62938 28.11375 29.05437 29.80062 30.47437 31.55625 32.66813 33.25312 32.92562 31.7225 29.39 26.15125 24.02875 23.72 23.99562 23.72 22.42875 21.04688 21.05938 22.09813 22.65375 22.8975 24.00063 26.74375 29.825 30.845 29.60563 27.13625 24.985 23.69312 22.66312 22.15812 22.1075 22.02312 21.85938 21.6975 21.75625 21.75625
6.1475 4.829375 4.74875 5.135625 6.39625 6.31125 4.078125 3.070625 3.308125 3.21875 3.848125 5.828125 7.87 9.745625 11.7 13.11312 13.83375 13.88813 13.64 13.57063 13.68812 14.17437 14.94938 15.02687 14.50875 14.02125 13.135 11.85437 11.35688 12.26437 13.6625 15.20875 16.4225 16.9025 17.93687 19.89437 21.70563 22.90063 23.86563 24.89938 25.74187 25.94188 26.04313 26.59063 26.82875 26.61563 26.42312 26.33687 26.19812 26.0175 26.60687 28.14125 29.20563 29.0575 28.78625 29.34562 30.43062 31.0075 30.47875 29.36438 27.53 24.78563 23.125 23.37188 23.96563 23.77938 22.66562 21.71938 22.25937 23.68813 24.26937 23.8 23.96688 26.055 28.35875 28.44813 26.65187 24.28625 22.59625 21.8825 21.42125 21.18438 21.17312 21.1375 21.0175 20.77375 20.65312 20.61563
3.779375 3.461875 3.09375 2.685 3.243125 3.680625 3.325 3.579375 4.23 4.549375 5.36 7.083125 8.826875 10.1875 11.4925 12.50562 12.85188 12.37687 11.76875 12.03063 13.05125 14.40563 15.4475 15.70875 15.57187 15.06375 14.05625 12.73063 12.14812 13.09812 14.53187 15.82687 16.87125 17.5125 18.57375 20.31187 21.86125 23.035 24.11 25.18625 26.1925 26.56937 26.54563 26.685 26.26188 25.34875 24.80437 24.67625 24.79313 25.08125 26.435 28.89875 29.9225 28.56063 26.99438 27.07063 28.17687 28.24125 26.97688 25.64062 24.39812 23.345 23.62437 24.65063 24.88812 24.14437 22.83375 22.57375 24.5025 26.99438 27.63563 26.18125 25.11563 25.94375 26.745 25.78813 23.66875 21.66875 20.65375 20.5175 20.61813 20.6775 20.69188 20.64313 20.44063 20.01813 19.82562 19.94125
2.94 2.844375 2.28875 1.878125 2.258125 3.21875 4.404375 5.339375 5.793125 5.940625 6.425625 7.7725 9.333125 10.33875 11.04125 11.3725 11.12687 10.35312 9.6025 10.385 12.28 13.64688 14.65 15.71125 16.31812 15.92 14.52 13.25625 13.50375 14.73938 15.82937 16.70812 17.52563 18.33125 19.39437 20.62125 21.6625 22.66875 23.63375 24.59063 25.62938 26.195 26.00125 25.45625 24.5125 23.64375 23.81562 24.635 25.40125 25.93625 26.9725 29.1475 30.50625 29.14812 26.72187 26.145 26.76062 25.83312 23.9475 23.0275 22.93813 23.83063 26.07875 27.33187 26.455 24.60312 22.625 22.8575 26.15 29.90187 31.52438 30.12375 27.89 26.98812 26.45625 25.13625 22.75562 20.445 19.62125 19.88938 20.35188 20.62188 20.53687 20.20312 19.8025 19.42937 19.51188 19.97875
2.955625 2.95125 2.725 2.781875 3.300625 4.335 6.10625 7.494375 7.254375 6.354375 6.0475 6.845625 8.276875 9.328125 9.899375 9.966249 9.49875 8.621875 7.880625 8.914375 11.19312 12.49938 13.76188 15.70813 16.73625 16.50125 14.71937 13.195 14.51937 16.38688 17.22125 17.89187 18.43875 19.0875 20.01312 20.9725 21.73625 22.24875 22.70312 23.49 24.65875 25.43188 24.9275 23.77375 23.01125 23.23625 24.70125 26.56625 27.95 28.5925 28.94938 29.935 31.11312 30.63688 28.49937 27.24 26.88875 25.41187 23.78188 23.86125 24.8475 26.05875 28.01062 28.845 27.53375 25.10687 22.57375 22.305 24.90625 28.67438 31.74312 31.945 29.8675 27.85688 26.485 25.19062 23.02563 20.57562 19.47062 19.72937 20.26687 20.50687 20.29875 19.715 19.13125 18.8925 19.16688 19.70312
2.99625 3.126875 3.11875 3.145625 3.760625 4.160625 4.910625 6.68875 6.96375 5.615625 4.705 5.040625 6.305 7.523125 8.328125 8.6475 8.246875 7.1125 6.335 7.29875 9.898125 12.25625 13.93062 15.63875 16.33438 16.17625 15.06375 14.18687 15.9725 17.89313 18.53062 19.02062 19.33 19.765 20.42312 21.145 21.72812 21.81437 21.8775 22.68687 24.06375 24.985 24.39812 23.315 23.1375 23.91187 25.71875 28.07937 30.10437 31.35875 32.00125 32.34875 32.615 32.29438 30.725 29.065 27.91562 26.4525 25.21125 25.34125 26.57812 27.83562 28.77687 28.93062 27.73313 25.19625 22.21188 20.735 21.67 24.70563 28.34375 30.10125 29.42125 27.54313 25.77438 24.40875 22.7225 20.82937 19.72375 19.83688 20.11125 19.88875 19.58875 19.21 18.76438 18.60062 18.78125 19.14
3.456875 3.215625 3.08125 2.821875 3.523125 3.65375 2.83125 3.95875 5.35125 4.59875 3.5525 3.4325 4.12875 5.301875 6.4175 6.91875 6.348125 5.024375 4.394375 5.513125 8.56375 11.52812 12.905 14.00063 14.36188 14.29625 14.67562 15.54375 17.4175 18.88375 19.40187 19.75 20.105 20.61188 21.1025 21.42 21.50937 21.19437 21.17063 22.33813 23.94375 24.62 23.8925 23.065 23.23875 24.07063 25.6875 28.01063 30.24187 31.92438 33.50125 34.8625 35.16188 34.2075 32.2775 30.355 28.7475 27.01687 25.71062 25.50187 26.66688 28.38437 29.17 28.68813 27.08313 24.36 21.03563 18.7375 18.90375 21.26188 24.28188 26.26375 26.62437 25.67687 24.30188 23.1625 22.04062 20.86438 20.09687 20.075 20.02125 19.45875 18.99937 18.81375 18.73688 18.78938 18.9325 19.3275
4.359375 3.373125 3.15875 3.009375 3.603125 3.691875 2.463125 2.61875 3.805625 3.62 2.87875 2.4025 2.445 3.2475 4.254375 4.661875 4.046875 2.939375 2.601875 3.904375 7.10125 10.05313 11.0025 11.47563 11.74375 11.96062 12.99375 14.84562 17.075 18.68 19.4725 20.02438 20.72812 21.445 21.80875 21.70312 21.22437 20.34312 20.11437 21.65375 23.38688 23.67313 22.71938 21.89313 22.565 24.33562 26.13375 27.90313 29.55875 30.8775 33.21 36.37312 37.64125 36.44563 34.16375 31.93875 29.89187 27.78437 26.43312 26.37313 27.36938 28.66312 29.03125 28.03125 25.9875 23.30688 20.24125 17.93 17.71563 18.97125 20.51438 21.75063 22.3975 22.2675 21.74625 21.50063 21.22938 20.6775 20.30125 20.28062 20.07875 19.43312 18.82 18.60813 18.77375 19.06313 19.27813 19.78062
5.5825 3.79625 3.39375 3.603125 3.743125 3.36625 2.734375 2.486875 2.631875 2.771875 2.62375 2.15625 1.8525 2.051875 2.46125 2.671875 2.434375 2.026875 2.10875 3.17375 5.481875 7.76625 8.844375 9.46625 9.913125 10.19687 10.96688 12.86375 15.42813 17.4175 18.62375 19.63 20.705 21.51 21.72688 21.34375 20.435 19.25562 19.08937 20.585 22.0075 22.03563 21.02563 20.84063 22.92937 25.79375 27.71375 28.965 30.05125 31.0975 33.61625 37.3925 39.12062 38.12688 36.04625 33.83562 31.85625 30.07187 28.78312 28.405 28.82312 29.32625 29.0175 27.62563 25.48438 22.99063 20.36687 18.14125 17.05313 16.94375 17.26188 17.69687 18.18813 18.52188 18.8725 19.755 20.34312 20.24688 20.22375 20.33937 20.1125 19.46938 18.86563 18.65937 18.865 19.17562 19.33562 19.70125
8.16875 5.258125 4.36625 4.74875 4.455 3.48625 2.996875 2.715 2.410625 2.570625 2.729375 2.451875 2.050625 1.785 1.660625 1.700625 1.79875 2.00125 2.43625 3.251875 4.769375 6.4 7.66125 8.80375 9.469375 9.643125 10.10187 11.55562 13.75187 15.66125 17.02563 18.31063 19.58813 20.3925 20.48688 20.02188 19.03938 18.14812 18.40313 19.35938 19.96187 19.98562 19.73187 20.82812 23.89437 27.02312 29.06187 30.30625 31.35062 32.60812 34.865 37.84063 39.20813 38.45438 36.84125 35.11063 33.62312 32.38562 31.29437 30.51625 30.28188 30.185 29.465 27.935 25.875 23.53563 21.05625 18.58375 16.61563 15.61375 15.32375 15.4 15.7525 16.31375 17.34562 18.73063 19.56937 19.76562 19.995 20.1275 19.77375 19.18063 18.7925 18.76875 19.00187 19.22812 19.31 19.6225
12.43563 7.924375 6.395625 6.644375 6.125625 4.68375 3.576875 3.12375 2.870625 2.84 2.8625 2.674375 2.350625 1.995625 1.704375 1.660625 1.8175 2.06875 2.4425 3.301875 5.060625 7.0825 8.731875 9.995 10.36875 10.13875 10.3525 11.12375 12.39875 13.84937 14.94375 16.11062 17.52625 18.42687 18.49875 18.12437 17.59625 17.36875 17.84875 18.34562 18.5175 19.00125 19.99438 21.75562 24.15313 26.43625 28.32 29.72937 30.97 32.43875 34.21687 35.99375 36.87875 36.81313 36.31187 35.415 34.38 33.52625 32.77937 31.98875 31.27188 30.6025 29.59937 28.1075 26.28687 24.29188 22.06375 19.52687 17.185 15.7475 15.1375 15.45187 16.10062 16.43188 17.29625 18.3025 18.89 19.3775 19.7275 19.62 18.96 18.3425 18.23187 18.51375 18.8875 19.13812 19.25688 19.62563
15.8 10.26562 8.3325 8.7325 8.409375 6.505625 4.4275 3.379375 3.055 2.995 2.90375 2.699375 2.485625 2.260625 2.036875 1.96 2.060625 2.35 2.6825 3.496875 5.53375 8.051875 10.30875 11.995 11.86312 10.82687 11.10875 11.6375 11.95312 12.69938 13.0675 13.75562 15.24875 16.28062 16.44125 16.34063 16.4825 17.10125 17.94875 18.57625 19.22625 20.12 21.27563 22.89437 24.44813 25.54625 26.62812 27.79875 29.05875 30.47375 31.79125 32.9025 33.75438 34.49562 34.9425 34.63187 34.105 33.7675 33.34 32.57563 31.50813 30.34438 29.06063 27.58937 26.05812 24.60938 23.01625 20.92188 18.6025 16.88375 16.21125 16.82688 17.73 17.87875 18.1775 18.65937 18.975 19.35063 19.4775 19.01687 18.12875 17.51188 17.55125 17.99187 18.49937 18.87625 19.05938 19.2875
16.72 11.69812 9.97375 10.83187 11.09125 8.8825 5.664375 3.67375 2.975 2.926875 2.91875 2.720625 2.5725 2.46375 2.345625 2.289375 2.3725 2.79875 3.20625 3.773125 5.71 8.538125 11.325 13.43437 13.2875 12.17813 12.6725 13.21562 13.105 13.19938 12.71187 12.52812 13.48938 14.44625 14.86312 15.18937 15.90563 17.19625 18.28437 18.94 20.22937 21.48312 22.43687 24.03563 25.46938 26.21563 26.81812 27.52813 28.37188 29.38313 30.55938 31.805 32.9 33.74813 33.98687 33.545 33.26688 33.28437 33.15313 32.5675 31.38812 29.87812 28.34 26.86188 25.54062 24.5575 23.65812 22.27312 20.37875 18.71688 18.07125 18.58125 19.39938 19.73625 19.825 19.83875 19.74562 19.59875 19.185 18.40812 17.5725 17.1325 17.23688 17.65125 18.14437 18.5525 18.7675 18.84875
16.525 12.6775 11.33938 12.53625 13.42313 11.3475 7.42875 4.293125 2.881875 2.8475 2.995625 2.825 2.684375 2.608125 2.56 2.564375 2.66 2.929375 3.125625 3.538125 5.384375 8.531875 11.66 13.35625 13.41438 13.71875 14.74375 15.16063 15.05688 14.89688 14.105 13.16125 13.11438 13.66687 14.24563 14.9 15.90938 17.22062 18.02188 18.5275 20.04 21.67625 22.97812 24.74187 26.34438 27.645 28.78437 29.49813 29.84438 30.25312 31.215 32.52562 33.56313 34.0025 33.7125 33.06187 32.60563 32.35875 32.31437 32.07625 31.13562 29.68125 28.17625 26.79062 25.57875 24.78813 24.24688 23.38313 22.11437 20.94188 20.40125 20.63938 21.21938 21.6075 21.63437 21.305 20.75063 19.99063 18.93375 17.88688 17.25625 17.10437 17.27875 17.58875 17.92375 18.23438 18.55625 18.815
16.31562 13.26188 12.27875 13.96437 15.28438 13.18125 8.815 4.861875 2.92375 2.893125 3.125625 2.955625 2.774375 2.7025 2.720625 2.781875 2.879375 2.95 2.93375 3.32125 4.9875 7.974375 11.03813 12.00813 12.08375 14.17188 16.26 16.59688 16.40063 16.26 15.85 15.04688 14.49563 14.46438 14.75938 15.38 16.33875 17.3475 18.05688 18.77813 20.09438 21.63375 23.17438 25.03312 27.08063 29.23375 31.23 32.56875 33.09125 33.255 33.7975 34.4575 34.74 34.72875 34.07188 33.20562 32.4275 31.60188 31.42562 31.39562 30.90625 30.14187 29.16438 28.02813 26.85813 26.00625 25.39812 24.61188 23.70062 22.96125 22.52 22.495 22.76188 22.9725 22.94563 22.58875 21.83937 20.62062 19.04812 17.75562 17.04688 16.77312 17.00312 17.46 17.75937 18.03 18.54688 19.15
17.01 14.5125 13.81187 15.69625 16.54125 13.71187 9.0075 5.06 3.203125 3.045 3.186875 3.010625 2.764375 2.70625 2.808125 2.900625 2.994375 3.04375 3.013125 3.319375 4.5925 7.055625 9.9225 11.20875 11.97188 14.66562 17.02875 17.38625 17.11375 17.04437 17.08937 16.84625 16.39938 16.0575 15.99375 16.34562 17.00625 17.67562 18.36 19.30688 20.60938 22.15 23.83187 25.585 27.49688 29.98875 32.85437 35.19437 36.58812 37.265 37.77312 37.46875 36.595 36.41375 35.52312 33.905 32.43813 31.2025 30.98562 31.0825 31.19563 31.7 31.98875 31.27938 29.82125 28.5275 27.46125 26.38125 25.4425 24.7225 24.125 23.765 23.66313 23.59562 23.4275 23.0375 22.28125 21.01937 19.33063 17.75813 16.55062 15.9825 16.47187 17.28062 17.72625 18.1425 18.77687 19.53625
18.65438 16.42312 15.63 16.75 15.8875 11.8 7.3975 4.61375 3.439375 3.178125 3.16 2.965625 2.691875 2.66 2.779375 2.85125 2.958125 3.0375 3.013125 3.175625 4.028125 5.951875 8.620625 10.97812 13.14625 15.675 17.41625 17.76625 17.57063 17.57125 17.865 18.02875 17.85687 17.52062 17.2325 16.98187 16.77312 17.25438 18.55938 19.90875 21.24063 22.86813 24.83937 26.67375 28.07187 30.24438 33.47438 36.44125 38.63313 40.12312 41.025 40.55938 39.40688 39.0975 37.805 35.15688 32.73625 31.28625 31.27 32.00188 32.8325 34.10437 35.58062 35.625 34.0575 32.15812 30.34062 28.825 27.81937 26.99813 26.02938 25.07 24.3325 23.74063 23.1175 22.3275 21.41 20.3225 18.91187 17.33063 16.04563 15.65625 16.10875 16.66875 17.33687 18.43312 19.33625 20.0425
20.11 18.15625 17.03375 15.87875 12.87438 8.569375 5.28375 3.9325 3.476875 3.256875 3.14875 2.92625 2.725 2.73625 2.779375 2.80625 2.959375 3.06875 2.986875 2.931875 3.338125 4.658125 6.95625 9.943125 13.21812 15.93375 17.33937 17.65125 17.5825 17.7075 18.19938 18.71812 18.8525 18.4975 17.78938 16.52938 15.11563 15.89625 18.77687 20.82562 21.91125 23.54812 26.11625 28.55 30.0525 31.70188 34.14938 36.68938 38.96563 40.95562 42.23563 42.09813 41.35313 40.9475 39.25625 36.11625 33.46312 32.32188 32.7625 34.04375 35.0975 36.18063 37.90562 39.07563 38.51 36.30312 33.56375 31.6475 30.7625 30.08313 28.84562 27.11188 25.44188 24.075 22.73375 21.19938 19.7675 18.64562 17.5775 16.50125 15.87625 15.595 15.22688 15.25062 16.45812 18.69687 20.19875 20.75813
20.7025 18.66375 16.63688 13.44 9.875 6.95375 4.828125 3.830625 3.483125 3.3225 3.186875 2.975625 2.89 2.969375 2.98875 3.00625 3.17875 3.304375 3.171875 2.91125 2.9325 3.713125 5.50875 8.3925 11.9775 14.99625 16.49063 16.885 17.05187 17.44563 18.16875 18.9725 19.33562 18.83313 17.52375 15.39062 13.51437 14.83938 18.48187 20.73875 22.15375 24.59375 27.65313 30.1475 31.66687 32.87062 34.40438 36.24562 38.18937 40.21938 41.69125 41.3025 40.03313 39.52438 37.8625 34.67562 32.6625 32.89125 34.37125 35.65062 36.3825 37.39938 39.19375 41.03313 41.32125 39.125 36.0125 34.20687 33.89062 33.52938 31.9575 29.52 27.07687 25.195 23.52188 21.33438 19.0875 17.4275 16.23625 15.53375 15.43875 15.03063 14.25625 14.61875 16.43438 19.11375 20.9775 21.48375
20.82438 18.12188 15.1075 11.95563 9.088125 6.804375 5.06375 3.974375 3.516875 3.366875 3.21125 3.02 3.016875 3.205625 3.326875 3.345 3.419375 3.508125 3.4475 3.22875 3.138125 3.61625 4.890625 7.071875 10.07 12.95625 14.685 15.4175 15.96688 16.72 17.69875 18.69938 19.16313 18.48688 16.72875 14.32625 12.80688 14.28938 17.54812 19.73375 21.485 24.16438 27.41063 30.1275 31.2225 31.8675 33.26937 35.1125 36.84312 38.26688 39.30563 38.60062 36.695 35.65437 33.80687 30.93188 30.31125 32.39188 34.98625 36.16312 36.30375 37.32563 39.35188 40.87313 40.7525 38.885 36.59063 35.68813 36.205 36.05188 34.18938 31.35938 28.38875 26.305 24.72688 22.21062 19.38625 17.20687 15.5425 14.76 14.80062 14.54562 14.32562 15.43 17.37313 19.71563 21.78188 22.6625
20.8225 18.28875 15.38 12.37875 9.2725 6.609375 4.92375 3.995 3.550625 3.35625 3.174375 3.02875 3.09375 3.341875 3.536875 3.525625 3.455625 3.508125 3.603125 3.60375 3.640625 4.045 4.845 6.009375 7.8825 10.245 12.135 13.24125 14.115 15.17625 16.43 17.6 18.08438 17.26 15.2725 13.10437 12.13938 13.49875 16.40688 18.66063 20.07562 22.06125 25.39437 28.28625 28.76375 29.28375 31.51063 33.88562 34.875 34.6925 34.36 33.53375 32.31875 31.31625 29.66688 28.17312 29.305 32.31063 34.71938 35.42062 35.36375 36.37188 38.11563 38.72937 37.86875 36.385 35.24437 35.56 36.49625 35.94062 33.95937 31.2125 28.13875 25.7075 23.74875 21.41 18.88 16.7675 15.11063 14.35875 14.48625 14.68563 15.17062 16.47 18.30812 20.62875 23.15313 24.70437
19.9475 18.15 16.0125 12.99375 9.38625 6.411875 4.78 4.034375 3.595 3.2975 3.096875 3.059375 3.210625 3.41625 3.559375 3.53875 3.44375 3.501875 3.695 3.875625 4.050625 4.4 4.811875 5.15375 5.82625 7.154375 8.870625 10.35625 11.51 12.77812 14.22625 15.44 15.8375 14.91375 12.91875 11.12438 10.66687 12.13062 14.92875 17.27938 18.94875 20.94 23.31187 24.86 25.48562 27.14 30.24937 32.73375 32.3975 30.45687 29.18375 28.44125 28.01188 27.5575 26.87062 27.16313 29.45375 32.5575 34.2175 34.03313 33.9975 35.18687 36.10938 35.48312 34.02125 32.8975 32.8475 34.31062 35.28625 33.87625 31.39812 28.73 26.08187 23.59937 21.29437 19.42125 17.445 15.6425 14.55625 14.23563 14.57375 15.17188 16.0225 17.32625 19.3 22.00813 24.92562 26.81625
17.95 16.44938 14.95 12.65562 9.361875 6.33 4.715 4.100625 3.67375 3.285625 3.059375 3.1 3.31125 3.46875 3.56375 3.616875 3.605625 3.6325 3.793125 4.040625 4.194375 4.373125 4.621875 4.630625 4.436875 4.5325 5.605 7.309375 8.72875 10.01062 11.3375 12.3125 12.545 11.75187 10.20312 9.000625 9.02 10.39 12.68937 15.18563 17.56313 19.45812 20.4125 21.1125 22.8425 25.6325 28.50063 30.23313 29.37625 27.15812 25.985 25.45312 25.00438 24.74187 24.93813 26.50625 29.65937 33.01 34.45375 33.18875 31.88375 32.68687 33.16125 31.78812 30.04187 29.43312 30.62563 32.71 33.27937 31.55 28.86375 26.04 23.49937 21.28125 19.29813 17.59687 15.8825 14.56 14.11187 14.37187 15.07438 15.91625 16.8925 18.28812 20.45188 23.47812 26.69062 28.5575
